ply
format ascii 1.0
element vertex 1388
property float x
property float y
property float z
end_header
0.06350650 0.01217548 -0.00610383
-0.03396766 0.05472654 0.00015142
-0.05656393 0.02959070 -0.00732663
-0.06080695 0.02289758 -0.00207810
-0.00486303 0.06329703 0.00878971
-0.01293484 -0.06493310 -0.00643527
-0.04537657 -0.04597757 -0.00384463
0.04868311 0.04320955 -0.00308316
0.05286261 0.03893573 0.00143097
0.06365159 0.01130033 0.00803276
-0.05559489 0.03401204 -0.00967427
-0.05671630 0.03394501 -0.00295247
-0.06450068 0.01686126 0.00686408
0.00834846 0.06428609 -0.00653033
-0.05873640 0.02906287 0.00069931
0.04531803 -0.04814471 0.00220342
-0.06398931 0.00386749 0.00556980
0.00585149 -0.06579772 -0.00541712
0.04375253 -0.04688826 0.00119502
-0.05834836 0.02531144 0.00350557
-0.05429484 -0.03784206 0.00464701
-0.00277466 0.06575164 0.00276858
0.03443709 -0.05705421 0.00222640
-0.01935959 0.06237000 0.01181375
0.06516311 -0.00660703 -0.00549502
0.04165943 -0.04876849 -0.00346705
-0.01729540 -0.06370808 0.01190507
-0.01057787 -0.06584129 -0.00135419
0.02647870 0.05810287 0.00453785
0.00302641 0.06449238 0.00813639
-0.06052580 0.02641583 0.01066917
-0.04228841 0.05105643 -0.00623527
-0.06488008 -0.00683093 -0.00324585
0.04967611 -0.04272983 -0.00312942
-0.02601585 0.05915857 -0.00327492
-0.03714293 -0.05503592 -0.00261254
-0.02437690 -0.05942559 0.00521542
-0.00651468 -0.06410332 0.00087428
-0.03920850 -0.04991712 -0.00614462
-0.04626017 -0.04486330 -0.00568034
0.03055276 0.05887834 0.00551416
0.04397659 0.04795579 0.00625192
0.00331722 0.06355454 0.00159111
0.03244039 0.05776629 -0.00972262
-0.06393359 0.00960529 0.00114147
0.00903409 0.06410530 -0.00372279
-0.01034196 0.06337003 0.00649191
-0.06569405 -0.01093036 -0.00029049
0.01280486 -0.06489826 -0.00361738
-0.01134721 0.06523078 -0.00604626
-0.06046489 -0.02651542 -0.00181852
-0.06447085 0.00274456 0.01163587
-0.04748884 -0.04214912 0.00738895
-0.00296280 0.06569732 -0.01124611
-0.03642438 -0.05401454 -0.00860391
0.00218004 -0.06424629 0.00471073
0.04611643 -0.04539457 -0.00457792
-0.04167747 -0.05085251 -0.00158521
0.05573248 -0.03378841 0.00223348
-0.00703668 0.06466651 -0.00704016
-0.05085014 -0.03871428 -0.01029613
0.06657759 0.00104513 0.00876895
-0.05573030 -0.03356819 0.00361124
0.05064571 0.03967172 0.00839619
0.06453438 0.00417596 0.00412386
-0.00110633 -0.06545555 -0.00334086
0.06455398 -0.01339601 -0.01102237
0.03479872 0.05583300 -0.00511218
-0.06034359 0.02217580 -0.00414010
-0.01877301 0.06310819 -0.00950843
0.02609191 -0.05865316 -0.01016315
-0.01880690 -0.06179824 0.01160439
0.06355116 0.00747602 -0.00208575
-0.03804146 0.05459775 0.00955365
0.03407863 0.05467109 -0.00134035
-0.05172272 -0.03755164 -0.01105285
-0.06548534 0.01106499 -0.00256066
0.05896251 0.02457428 -0.00241766
-0.06363131 -0.01597473 0.00956472
-0.05625969 0.03163065 0.00690838
-0.06317615 -0.00998975 -0.00086925
-0.05039001 -0.04350350 -0.01180085
0.04869711 -0.04507299 -0.00846566
0.05418668 -0.03637343 0.00409195
0.06029695 -0.02078084 0.00611969
0.06061454 -0.02527450 -0.00529945
0.00046202 0.06566598 -0.00176589
0.01872677 -0.06345232 -0.01031558
-0.05368832 -0.03894153 -0.00370586
-0.03766756 0.05136333 0.00122114
0.01747388 0.06206485 -0.01195230
0.03213540 -0.05497031 0.00881301
0.04092119 -0.05195122 -0.00811960
-0.05084665 -0.03863892 0.00698258
0.06192446 0.02170120 -0.00488699
0.02261960 0.06236891 0.00929444
0.04899448 0.04044439 0.00552511
-0.05872300 0.02633624 0.00529101
0.05954581 0.02719013 0.00404457
-0.04580482 0.04753765 -0.00416269
0.01822644 -0.06359408 0.01088456
-0.02567686 -0.05813276 -0.00393516
-0.05914301 -0.02400193 0.00242461
0.05718645 0.03179722 0.00068799
0.05383121 0.03714580 -0.00572832
0.06347632 -0.00800090 0.00296752
-0.00445377 0.06629990 -0.00057858
-0.01151049 -0.06373303 0.00565408
0.00038946 0.06551886 0.00615085
-0.03735107 0.05483700 -0.00938166
-0.01592393 -0.06148182 0.00177648
-0.03250948 -0.05648356 0.00021061
0.06122260 -0.01936705 -0.00520278
-0.02935519 0.05924272 -0.00226068
0.06151087 0.02154539 0.00104734
0.06128340 -0.02094160 -0.00775841
0.03263621 0.05574988 0.00002902
0.05315166 -0.03833529 0.00648355
-0.06390360 0.00868387 0.01041259
0.06450594 0.00292756 0.00650102
0.01014028 -0.06402976 0.01083103
0.06638287 0.00223733 0.00618594
-0.03919001 -0.05399003 -0.00242549
0.04794001 0.04286869 0.00354883
-0.05066835 0.04168341 -0.00669219
-0.04571089 -0.04637569 0.00509366
-0.03249833 -0.05618538 -0.00017884
0.02697785 -0.05931552 -0.00430482
0.02235161 -0.06259633 -0.01176655
-0.01952060 0.06130288 -0.00998081
0.01178882 -0.06287511 -0.00715229
0.00964578 -0.06539126 -0.01009166
-0.00587460 -0.06616627 0.00939407
-0.06451647 -0.01418999 -0.00633705
0.01384610 0.06341588 -0.01059613
-0.05314456 0.04036205 0.00816522
0.06141777 0.01941858 -0.00301185
0.02083380 0.06225514 -0.00122958
-0.06272691 0.01493798 0.00931502
-0.05456382 -0.03556839 0.00532067
-0.02384216 0.05982846 -0.00160094
0.06672295 -0.00089439 -0.00156514
0.06247335 0.01390993 -0.00287206
-0.03787279 0.05377279 -0.00527559
0.03787050 0.05392051 0.01158861
-0.05503775 0.03193685 -0.00489051
0.06296739 0.02054786 0.00812990
0.05906077 -0.02746920 -0.01093899
0.06561616 -0.01043742 -0.00089986
-0.00557249 -0.06342436 0.00353522
-0.00240816 0.06402575 0.00842800
0.05751398 -0.02812440 -0.01205771
0.02751957 0.05788061 0.00172045
0.05830167 0.02851505 0.00918511
-0.06002135 -0.02891113 0.00115379
-0.06132628 -0.02173506 -0.00181118
0.05101270 -0.04246722 0.00027773
-0.05426015 -0.03821834 0.00313509
0.06226729 -0.02259019 0.00138853
-0.03632960 0.05427621 -0.00134294
-0.05146973 0.03861411 0.00116301
-0.02676269 -0.05953870 -0.00923881
0.03466763 -0.05389857 -0.00601469
0.04760330 0.04361973 0.00999763
-0.02622583 0.05790248 0.01036770
0.06552090 -0.00392829 0.00867059
-0.05326846 0.03893041 -0.00240792
-0.06630142 -0.00408943 0.01146961
0.06270034 0.01002974 0.00642843
0.05201233 -0.03988353 -0.00232763
-0.06657168 0.00037328 0.01210508
-0.05133445 -0.04050505 -0.01012719
-0.03767093 -0.05189726 -0.00636293
0.03678348 0.05391088 -0.00387845
-0.04268208 -0.05033820 -0.00429776
0.05898576 0.02762535 0.00645821
-0.01586850 0.06455224 0.00364001
-0.02246429 0.06040594 -0.01036062
0.02121314 0.06137753 0.00843535
-0.02078412 0.06030854 -0.01029284
-0.06368208 0.00381363 -0.00013568
-0.03458788 -0.05315278 -0.01025494
-0.04330314 0.04941448 0.00932319
-0.03445699 0.05492443 -0.00427978
0.04026778 -0.05116285 0.00892433
0.01334073 0.06213417 0.00821510
0.03265725 0.05671059 0.00446296
0.05355923 0.03662143 0.00273194
-0.03814999 0.05081927 -0.00062437
0.04987486 0.04101086 -0.01133474
-0.05892077 0.02632096 -0.00843153
-0.01990824 -0.06132563 -0.00194324
0.06073812 -0.02559871 0.00596420
0.06048991 0.01907668 0.01171242
-0.01898121 0.06157239 -0.01211008
-0.01035485 0.06567274 -0.00753455
-0.02040366 -0.06046376 -0.00473892
0.02425907 -0.06111540 -0.00105561
0.04419860 -0.04558427 0.01005515
-0.05819599 0.03097192 0.01018465
0.06347675 -0.01838707 -0.00297645
0.06407642 0.01032738 -0.00670619
0.00557948 0.06622985 -0.00510425
0.02592944 -0.05837615 0.00026019
0.05515682 0.03477138 0.01197126
-0.04648524 0.04407218 0.00668704
-0.06425201 -0.01622587 0.00758842
0.06651399 0.00128845 0.01051264
-0.03696607 -0.05438759 -0.00847139
0.00492289 0.06519939 0.00167770
0.04869341 0.04099887 -0.01108222
0.04661851 0.04547144 0.00436919
0.06515203 -0.00583122 0.00309074
-0.04438370 0.04782459 -0.00055086
-0.06471850 0.01248989 0.00061312
-0.06329010 0.01057617 0.00520347
0.05822530 0.02579094 0.00934743
0.00833449 -0.06329408 -0.00977579
0.05761367 0.02886994 -0.00352455
0.02897696 -0.05965246 -0.01100689
0.06244860 -0.01905070 0.00268214
0.02805158 0.05846613 0.00409078
-0.05174532 -0.04041877 -0.00930838
-0.00616335 0.06470613 -0.00237019
0.05276892 -0.03643935 -0.00244397
-0.06381971 0.01042254 -0.01042612
0.05474844 -0.03586738 0.00077917
-0.02825984 0.05985063 0.01154936
0.06536707 0.00673581 -0.00574595
0.02024865 -0.06119296 0.01161050
-0.04968367 0.04019436 0.00070124
-0.01649498 0.06380525 -0.01140003
-0.01340047 0.06524383 -0.01130074
-0.00899645 0.06484426 0.00807036
-0.02237429 -0.06075046 -0.00832891
0.04835530 -0.04191784 -0.00741142
-0.04179923 0.05070048 -0.00834091
0.06409512 -0.01115190 0.00368848
-0.06339172 0.01668589 0.00392044
-0.05996563 0.02742427 0.01102840
0.04732109 -0.04628927 0.00803153
-0.01473607 -0.06316039 0.00458994
-0.01254359 0.06302932 0.00959253
-0.04156027 -0.04847587 -0.00147816
0.05667678 0.03474554 0.01193391
0.05974919 0.02822115 0.00371074
-0.05873075 -0.02645604 0.00768788
-0.05334246 0.03771821 0.00454415
-0.04741964 -0.04425374 0.00240186
-0.04824601 0.04172510 -0.01111873
-0.05355121 -0.03899269 -0.00407835
0.01878936 0.06376707 -0.00962060
-0.01188295 -0.06520849 0.01159233
0.02254291 -0.06242789 -0.01206759
0.05555682 0.03194478 0.00194442
-0.05900417 -0.02759251 -0.00404382
-0.04290519 -0.05000370 0.01159163
-0.00280682 0.06443497 -0.00749621
0.00564569 0.06475376 -0.00934034
-0.02673523 -0.05958694 0.00935730
-0.03564232 0.05565387 0.00040025
-0.03995768 -0.05338179 0.00359547
0.01353749 -0.06306804 0.01147601
-0.02071457 -0.06266909 -0.00596839
-0.01148984 0.06518816 0.01056898
-0.06324793 -0.01844550 -0.00961139
-0.06551466 0.00098719 -0.00084403
-0.05233084 0.03753685 -0.00581039
-0.05384569 0.03646673 -0.00185685
0.06496003 -0.00431442 0.00076967
0.06096766 0.01891812 0.00005921
0.04115143 0.04942025 0.01054339
-0.06508598 -0.00455003 -0.00767477
-0.00871321 -0.06362930 0.00826948
0.05516551 -0.03268951 -0.00234156
-0.04616761 0.04522018 -0.00598347
-0.06418493 0.01274998 -0.00139383
0.03700794 -0.05453566 0.00215677
-0.01243122 -0.06453305 -0.00455165
0.00187220 -0.06519936 -0.00767549
-0.04815003 -0.04179530 0.00168813
0.02452770 -0.05862053 0.00559535
-0.06242522 -0.01129488 -0.00680590
0.06279718 -0.01052266 0.00623497
0.01805387 0.06313976 0.00947676
-0.01071416 0.06426259 -0.00566746
-0.04439799 0.04541460 -0.00251103
-0.04402761 -0.04860730 0.01138177
-0.03010819 -0.05728112 0.00455819
-0.06363603 0.00195809 0.00791752
-0.06041369 -0.02059087 0.00980540
-0.02152376 -0.06109120 0.00403908
0.01155609 0.06555622 0.01110825
0.06349434 -0.01624217 -0.01210019
0.06475884 -0.01565593 0.00107175
-0.02139224 0.06250817 -0.00970602
-0.06347128 -0.01063613 -0.00893631
-0.05828350 -0.02747112 0.00981938
0.01114304 0.06464296 -0.01138156
0.06302268 0.01399311 -0.00003222
-0.06412159 0.01678755 0.00171529
0.06328483 0.01847833 0.00055506
-0.01599265 -0.06389791 -0.00009395
-0.06488332 0.00867218 0.00048780
-0.06404428 0.01121746 0.00188552
0.02923834 0.05633876 -0.00094032
-0.02727289 -0.05970095 0.00769170
-0.02191183 0.06255470 0.00985200
0.06528136 -0.00883559 0.00792299
-0.06174517 0.01470163 -0.00155950
0.05694884 0.02942967 -0.00749710
0.03713636 -0.05266602 -0.01012018
-0.05441644 0.03746084 -0.00163950
0.04910909 0.04339383 0.00936563
0.00621471 -0.06352755 -0.00738106
-0.06314066 -0.00600689 -0.00727403
0.04984899 -0.04435238 0.00571944
0.06366181 0.01567815 0.01174800
-0.03417209 0.05633249 0.00816168
-0.02733733 -0.05950477 -0.00792812
0.06387820 0.00180092 -0.00021710
-0.04206531 0.04835295 0.01188421
-0.05810571 0.02560494 0.00990030
0.00964371 0.06512054 -0.01118144
0.03146016 -0.05781671 0.00690566
-0.01251455 0.06521336 -0.01163886
-0.02372804 0.06121850 -0.01195837
0.05039774 0.04010921 -0.00087754
0.00365769 -0.06501054 0.01036573
0.06038019 0.02165514 -0.00579886
-0.01441401 0.06202223 -0.00023733
-0.06098733 0.02153596 0.00958176
0.04797648 0.04629764 -0.00285417
-0.03996107 0.05275341 0.01188470
-0.04258785 -0.05026425 -0.01181932
-0.05575131 0.03219524 -0.00743067
0.02475644 0.06008781 -0.00687430
-0.01795481 -0.06329182 0.00129584
-0.06550294 -0.00369177 0.01074895
-0.05052383 0.04088529 -0.00730048
-0.03826862 -0.05185194 -0.00308150
0.06176734 -0.02169549 0.01070593
-0.06193186 0.01711644 0.00677719
0.05398797 -0.03762569 -0.00969025
0.03180557 -0.05801105 -0.01167860
-0.00125966 -0.06580166 0.00763957
0.05327521 -0.03928271 0.00688499
-0.05274733 -0.03765517 0.00611099
-0.04859765 0.04102543 0.01186689
-0.06498268 0.01232580 0.01102770
-0.01391544 0.06355844 -0.00670959
0.01715969 -0.06399574 0.00077279
0.01864141 0.06238236 -0.00972898
-0.03823738 -0.05186777 0.00121029
-0.01146205 0.06446990 0.00362230
-0.05495948 -0.03562672 0.00982035
-0.06649918 -0.00149813 -0.00855681
-0.00582170 0.06519265 0.00165844
-0.03642793 0.05442862 0.00008229
-0.02560082 0.06103243 -0.01143046
-0.06574097 0.00647624 0.00279563
-0.06367806 -0.00686208 -0.00205374
0.06059571 0.01926283 -0.00663352
-0.03966661 -0.05050308 0.00897149
-0.03915799 0.05011865 -0.00479108
-0.04173018 -0.04964075 -0.00389590
0.03506197 -0.05614485 0.01042090
-0.00371444 0.06639997 0.01067701
0.01980212 0.06048828 0.00325066
0.03259683 -0.05762129 -0.00695046
0.03463333 0.05675155 0.00026088
0.01588079 0.06379318 -0.00833300
-0.00324659 -0.06338746 -0.01030206
-0.03009912 0.05713795 0.01008731
0.06006055 0.02483136 -0.00446724
-0.04286140 -0.05004560 -0.00244931
-0.01394790 -0.06404161 0.01201782
0.04474603 0.04586773 -0.00309999
0.02110902 0.06130307 0.01005276
0.06141568 -0.01814518 0.00540708
-0.00281663 -0.06383115 0.00808143
0.01264536 -0.06495929 0.00455964
0.04178035 0.05156158 0.01076466
-0.05192485 -0.03963279 -0.00210879
-0.04941083 -0.04260084 0.01187300
-0.05553508 0.03238445 -0.00113553
-0.03151990 -0.05678966 0.01182265
-0.02497601 0.05981075 0.01202986
-0.06555980 0.00625226 0.00870853
0.05924958 0.02658051 0.00983505
0.05056746 -0.04050026 -0.00419668
-0.04194811 -0.05032014 0.00205236
0.05754226 0.03364367 -0.00580578
0.00131461 -0.06355181 -0.00718363
0.01349919 0.06262907 0.00402864
-0.06247246 0.02283951 -0.01125168
0.02710398 0.05898004 -0.00378225
-0.01910578 0.06264965 0.00589442
0.04742751 0.04468064 0.00986865
0.03292218 -0.05687191 -0.00089660
0.02430141 -0.06019828 -0.00072666
0.01372841 0.06210857 0.00977811
-0.00538139 0.06410424 0.00288141
-0.05786687 -0.02648231 -0.00909763
0.06531769 0.00135440 0.00779613
0.02836741 -0.05885571 0.00507097
-0.06408688 0.01004369 -0.00703877
0.01996298 0.06216302 -0.01055302
-0.06081099 -0.02289492 -0.00575674
0.00403460 0.06618580 -0.00457339
-0.06179788 -0.01640681 -0.00884597
0.06261946 0.02283428 0.01206567
0.06227087 0.01236176 0.00427611
-0.03491088 -0.05636637 0.00627187
0.06566262 0.01041507 -0.00942696
0.05277610 -0.03980845 0.00493068
0.03391539 0.05440507 -0.00741022
0.04695049 -0.04302306 0.00929544
-0.05587353 -0.03473748 -0.00416559
0.06108713 -0.01972858 0.00719329
0.03300119 0.05568738 0.00285196
-0.05895775 -0.03051874 0.00125292
-0.06371737 0.00013570 -0.00132733
-0.00910484 0.06515917 0.00379015
0.06353395 -0.00156789 -0.00510915
0.00086396 -0.06672806 0.01165499
-0.04833112 0.04577170 0.00267757
0.05751980 -0.03051376 0.01108616
-0.04402584 0.04742138 0.00621434
0.05782226 -0.03175336 -0.00693807
-0.02991822 0.05845218 0.01175438
0.02366749 0.06143405 -0.00503023
0.03289363 -0.05567230 -0.00750496
-0.04664163 0.04725615 -0.00452385
0.04146804 -0.05092292 -0.00162506
0.00592278 0.06458999 -0.01006759
0.01622479 0.06165142 0.00826945
-0.06393823 0.00744227 -0.00959652
0.06519718 -0.01261286 -0.00670598
0.00190092 0.06396862 0.00204236
0.03262240 -0.05464877 0.01136388
0.05463982 -0.03698069 0.00665649
-0.02265080 0.06188827 -0.00848520
-0.04416543 -0.04582188 -0.00381848
0.04720903 0.04546221 -0.00174712
0.06232733 -0.01192705 0.00288987
-0.01364459 -0.06300148 -0.01138810
-0.00446233 0.06423502 0.00440508
0.05984448 -0.02397615 -0.00992228
0.04025732 0.05310017 0.00510061
0.05845992 -0.02997084 -0.01163248
-0.06502288 0.00785825 -0.01112109
-0.06241727 -0.01851877 0.00817390
0.01431104 -0.06219877 -0.00409658
-0.06431165 -0.00331987 0.00249849
0.02706010 -0.05841619 -0.00624077
-0.04309451 0.04751867 -0.00630337
-0.04782610 0.04570822 0.00231519
0.06184725 0.02073267 -0.00428605
0.02067163 -0.06175127 0.01185036
-0.06337562 0.02004660 0.01124735
-0.05419250 0.03622315 -0.00365571
-0.05923567 0.03018839 0.00962111
0.06465033 -0.01649439 0.01176640
-0.02506685 0.05962265 -0.01101816
0.04584866 0.04395636 0.00274376
0.06103786 -0.02575700 -0.00692674
-0.01218609 -0.06499565 -0.00185442
-0.06503383 -0.00558476 0.00531552
-0.06132467 0.02459902 -0.00941769
-0.04611858 -0.04700787 0.00327309
0.04289727 0.04838880 -0.00295377
-0.05812053 -0.03083064 -0.01114352
-0.06261582 0.01971344 0.00932198
0.03193922 0.05572128 -0.00807165
0.03298340 -0.05563896 0.00278900
-0.06012688 -0.02762312 0.00560619
-0.01938023 -0.06141587 -0.00036289
0.06298287 0.01356955 -0.00610432
0.06042191 -0.02692305 0.00384577
0.01143081 -0.06347479 -0.01134973
-0.04837172 0.04425244 0.00740337
0.06607900 -0.00414995 -0.00324838
0.06295264 -0.00870130 -0.01029109
-0.01433140 -0.06478884 -0.01001148
0.05489023 -0.03747217 -0.00881847
0.06492411 -0.01383068 0.00891569
-0.00929405 0.06500674 -0.00368607
-0.05592002 0.02996384 -0.01156337
0.05353022 -0.03971657 -0.00537444
-0.06077191 0.02419292 -0.00274368
0.00723712 -0.06544653 -0.00619728
0.05140827 0.04156745 0.01016252
-0.04210199 -0.05097410 0.00108110
0.04743083 0.04390114 -0.00789421
0.01226057 0.06285799 0.00072440
0.05865925 0.03178380 -0.00667978
-0.03754767 0.05267432 -0.00498623
-0.05082090 0.04197905 -0.00769409
-0.06259157 0.01579954 0.00871093
-0.06327543 -0.01984928 0.00126387
0.01722638 0.06307940 0.00217189
0.01360262 0.06205650 0.00957367
-0.00157940 -0.06651020 0.01108205
-0.01161385 -0.06446327 -0.00877336
0.06463431 -0.00858607 0.01087238
-0.05132354 0.03912311 -0.00795773
0.00097830 0.06412715 0.00338407
-0.04688319 -0.04622750 -0.00324658
-0.03616576 -0.05387133 0.00885987
0.04118899 -0.05099730 -0.00393814
-0.04917496 0.04101979 -0.00655246
-0.05646461 -0.03150216 0.00968798
0.03722962 -0.05419948 0.00826021
0.06430789 0.00355509 -0.00229128
0.05300938 -0.03636730 0.00989888
0.05027191 -0.04104799 0.00798773
-0.06255560 -0.02280031 -0.00792982
-0.06535422 0.01068258 0.00602443
-0.04246438 0.04878795 -0.00711987
-0.06376668 -0.00043567 -0.01140547
-0.03938707 -0.05260118 0.01155473
-0.03862877 0.05405035 -0.00061838
-0.00236357 -0.06561101 -0.00460706
-0.06512661 0.01275169 -0.00075778
0.03822461 -0.05128805 -0.00411721
-0.05266873 0.03553683 0.00910735
0.06608600 0.00930511 -0.01112626
0.06323604 0.01026668 -0.00508525
0.05781498 0.02968379 -0.00375573
0.04699759 -0.04384761 0.00941784
0.03236887 -0.05468328 0.00257364
0.05772207 -0.03137881 0.00704854
0.04722135 0.04552096 -0.00670773
0.06025131 -0.02682087 -0.00303398
-0.00146482 -0.06602873 -0.00030667
0.06385415 -0.01645038 -0.00910073
-0.05511667 -0.03721660 -0.00783553
0.01688521 0.06348244 0.00535980
-0.00297160 -0.06598041 -0.00447447
-0.05650719 0.03264566 0.01136460
-0.00093122 0.06503215 -0.00919550
-0.05873071 -0.02542210 0.01000107
0.05852496 0.02837966 0.00729617
0.05853646 -0.02668651 -0.00419358
0.02704819 -0.06062600 -0.00840976
-0.04221313 -0.04828153 0.01198075
0.00411696 -0.06648575 -0.00018871
0.00908982 0.06447915 -0.00147379
0.06551887 -0.00509300 -0.00966069
-0.01108088 -0.06324168 0.00958839
0.04622624 -0.04488085 -0.00064827
0.02392623 -0.06084917 0.01102542
-0.04603475 0.04402015 0.01208467
-0.01912043 -0.06283466 0.00627704
-0.05775983 0.03202815 -0.00444909
0.06274228 0.02056246 -0.00727902
-0.00953629 -0.06360198 0.00315810
0.04535992 -0.04592689 -0.00240337
0.00730504 -0.06397464 -0.00245011
-0.03214907 -0.05562889 -0.00713118
0.04566236 -0.04546821 -0.00437790
0.06499477 0.01256975 0.00615559
0.06507135 -0.00535028 0.00226557
-0.05732621 0.03087853 -0.00111630
0.03219026 -0.05521965 -0.01156871
-0.05187964 -0.03662670 0.01180486
0.04997784 0.04134989 0.00327276
0.05386867 -0.03475706 -0.00191633
-0.04599150 0.04455790 -0.00040588
0.06380452 -0.00950284 -0.00078913
-0.04755543 0.04448487 -0.00622118
0.04165980 0.04823547 0.00679677
0.04737761 0.04565038 0.01186129
-0.06327675 0.01618425 -0.00305330
0.05070864 0.03807961 -0.00750395
-0.02195786 -0.06204150 0.00865697
-0.06432446 -0.00084787 -0.00778799
0.03265977 0.05673553 -0.00732280
0.06510886 -0.00669974 -0.01025830
0.01263069 -0.06339640 -0.00362788
-0.00303354 0.06360944 0.00593750
0.05929208 0.02271250 0.01060726
0.04622549 -0.04538290 0.00552278
-0.02692226 -0.05833776 0.00905802
-0.06290215 -0.02148319 0.00571777
-0.06072814 -0.02102245 0.00312253
0.04827677 -0.04212536 -0.00327912
0.06667315 -0.00092138 0.00075679
0.02231322 0.06183550 0.00454737
0.03830952 -0.05332889 -0.00831055
-0.06201453 0.01601227 -0.00426552
-0.00658296 -0.06398011 -0.00557139
-0.06476707 -0.01132655 0.00141440
-0.06402249 -0.00324454 0.00382849
-0.03403080 -0.05434060 0.00388730
0.02390221 -0.05931724 0.01163411
0.05866793 -0.03028267 0.00815180
0.00791728 0.06590373 0.01181961
-0.01930985 -0.06328708 0.00393505
-0.03770289 0.05130749 0.01213682
-0.04216348 -0.05160809 0.00955856
-0.06639924 -0.00205452 0.00780499
-0.04842968 -0.04189007 0.00804346
-0.04991077 0.04240681 0.01036184
0.01717089 0.06379913 -0.00200446
-0.01661872 0.06132515 -0.00902016
-0.01788757 -0.06298748 0.00375873
-0.04151539 -0.05078148 0.00701739
-0.04430293 0.04930601 -0.00944918
0.06134293 -0.01708941 -0.00044036
0.06520887 0.00344772 -0.00392608
0.03324118 0.05719073 -0.01033261
0.00436118 -0.06470594 -0.00970018
0.03436965 -0.05679760 -0.00128799
0.04717889 0.04611455 -0.00270400
0.02480304 -0.05989442 0.00350216
0.05334826 0.03724673 0.00340204
0.05896537 0.02818455 -0.00213835
-0.05469728 0.03256793 -0.00863405
-0.00843381 -0.06582423 0.00536049
-0.01492834 -0.06167526 0.00401295
0.04817757 -0.04514575 0.01048851
-0.06546155 -0.00089530 0.00049993
-0.04163823 -0.04995882 -0.00152159
-0.06376317 -0.00950132 0.00627785
-0.02988303 0.05732302 -0.01107797
-0.05044861 0.03849314 -0.00065744
0.05867761 0.02441844 0.00527679
-0.05494524 0.03470046 -0.00601180
-0.06205249 0.01535247 0.00014696
0.04377635 -0.04623314 -0.00528180
-0.05924832 0.02767894 -0.00812986
-0.03634461 -0.05244127 -0.00468651
0.03780192 -0.05266033 -0.00097194
0.06385741 -0.01305830 0.01137670
0.02280513 -0.06267088 0.00368788
-0.01259213 -0.06305649 -0.01125303
0.05544304 -0.03419448 -0.00106546
0.02031533 -0.06107447 0.00672780
0.04579957 0.04553445 0.00539968
0.06421393 0.00998963 0.00230204
0.06469030 0.00654620 -0.00003842
-0.03425583 0.05484907 -0.01183267
0.06203201 0.02125594 0.00511924
0.00807587 -0.06385647 0.00507327
-0.02234925 -0.06216059 0.00159345
0.06438982 -0.01726753 -0.00290868
0.06446263 -0.01663055 -0.00635133
0.06393516 0.01016035 -0.00455009
-0.05327224 0.03712614 0.00888026
0.05002023 0.04376381 0.01205192
0.02295741 -0.05998554 -0.00275578
0.05414744 0.03370221 -0.00344882
0.05973017 -0.02727020 -0.00275513
-0.06201377 0.02216576 0.00631020
-0.05875187 0.02457608 0.00131257
-0.00168256 -0.06460105 -0.00606023
-0.05966398 -0.02265905 -0.00644591
-0.02045034 0.06190670 -0.01190209
-0.05343672 -0.03495050 -0.00914377
0.03855633 0.05391243 0.01084562
0.04877096 -0.04059979 0.00712028
-0.04195237 0.04910425 0.00498805
0.02890584 -0.05813709 0.00457472
0.01467267 -0.06488038 0.00879099
0.05527688 0.03551084 -0.00431323
0.04139396 0.04910729 -0.01181139
0.03427694 0.05652620 0.00411515
0.02969523 0.05610245 0.00266347
-0.06459878 0.01597279 -0.00468553
0.06569947 0.00857561 -0.00896664
-0.02585756 0.06049423 0.00400832
-0.06433667 -0.01291612 -0.00237151
0.02185301 -0.06077972 0.00189141
0.02855372 -0.05721053 0.01078322
-0.04068081 -0.05046466 -0.01040832
-0.04893641 0.04387483 -0.00729470
0.01020547 0.06289497 0.00872481
-0.05601173 -0.03132935 0.00039019
0.02756070 0.05836026 0.00198554
0.04835622 -0.04405030 -0.00442118
-0.06410203 0.01563325 -0.00770364
-0.02048102 0.06132236 0.00224600
-0.05500650 0.03346035 -0.00240935
-0.03604574 -0.05439014 0.00191200
-0.06010271 -0.02858268 0.01182528
-0.06056041 -0.02370094 0.00003879
0.06505568 0.00069832 0.00563031
-0.04692002 0.04402391 -0.00651287
0.06360927 -0.01247180 0.00805030
-0.06062167 -0.02787181 0.00929798
0.03171538 -0.05696362 -0.00660685
0.00679142 0.06623995 -0.00215970
0.04825719 0.04382094 0.00769710
0.01111123 0.06443476 -0.00178158
-0.03545661 -0.05352392 0.01168567
0.01665958 0.06216551 0.01101271
0.06358718 -0.01033377 0.00781033
-0.06470681 0.00159226 0.00673439
0.04854351 0.04163343 -0.00513111
-0.02387263 0.05959548 -0.00952418
-0.03335467 0.05643268 -0.01024349
-0.04495190 0.04607137 -0.01181623
-0.05652940 -0.02982037 -0.00452466
-0.01469199 0.06455220 -0.00876943
0.03520099 -0.05586769 -0.00970824
-0.06342239 0.00601428 -0.00048309
0.00990901 0.06465373 0.01002090
0.04234090 -0.04724000 -0.00902896
0.00255020 0.06643395 0.00777038
-0.00594979 -0.06616343 0.00352574
0.03460353 0.05700155 -0.00278102
0.06142080 -0.01692626 0.01094955
-0.01167478 0.06268455 -0.00706553
0.05520659 0.03529195 0.00493514
-0.03343717 -0.05666685 0.00742503
0.06397672 0.01465501 -0.01132971
-0.06438424 0.00475019 -0.01203273
-0.03590655 -0.05585622 0.00742343
0.04352109 0.04953998 -0.01199023
0.04429302 0.04817130 -0.00839292
-0.01627921 0.06167241 0.01008060
-0.05440454 -0.03717417 0.00563483
0.02521212 0.06041602 0.00885849
0.03839699 -0.05142391 0.00187706
0.01450953 0.06503323 -0.00449810
-0.03035545 0.05773337 -0.01033415
-0.06493887 0.00391772 0.00761050
-0.06559405 0.00336976 0.00689148
0.03705077 0.05405356 0.00088469
0.00158716 0.06466621 0.00658483
0.03127430 0.05583521 -0.00212585
0.05330285 0.03669729 -0.00566259
0.06494447 0.00403427 -0.00576615
-0.01287749 -0.06444159 0.00076511
0.06319544 -0.01330664 0.01145550
-0.06248455 -0.02071827 0.00785993
-0.01409967 0.06524300 -0.00240219
-0.02469402 -0.05960601 -0.00556879
0.00616806 0.06438351 0.00851917
0.04151608 0.05213133 -0.00763173
0.06491341 -0.01389364 -0.00084415
0.06448893 -0.00072221 0.01165543
-0.04060702 0.05051130 -0.00629118
0.01543640 0.06361109 0.00807892
-0.06432721 -0.00849287 -0.00281836
0.05558526 0.03213453 0.00804744
-0.06550331 -0.00041091 0.00875758
0.01750504 0.06347708 0.01059983
0.03045279 0.05799723 -0.00637415
0.02411911 0.06040929 -0.00790084
-0.02587009 0.06083957 0.00893096
0.05494536 0.03197991 -0.00348528
0.05931825 -0.02273602 0.00474222
-0.04135268 0.05165743 0.00349177
0.06426217 -0.01640652 0.00358601
0.03286821 -0.05603433 0.00658247
-0.04476069 0.04928727 0.00589552
0.00455277 0.06411719 0.00783449
0.06209995 -0.01365887 -0.01105314
-0.05496478 0.03280372 0.00043898
-0.00084674 0.06505525 0.00887454
0.06331360 -0.01218365 -0.00051531
-0.06199250 -0.01476254 0.00612094
-0.00325225 -0.06578781 -0.00884486
0.04962702 -0.04205891 -0.00621547
-0.06305232 0.01308783 -0.00333613
0.02015937 0.06247228 -0.00951459
0.00503413 0.06543129 0.00263057
0.06643152 -0.00605282 -0.00056341
-0.06086832 0.02601122 -0.00577481
-0.02503002 -0.06107149 0.00954640
-0.06553044 -0.00437273 0.00325431
-0.06474830 0.01420762 -0.00723142
0.06063576 -0.02564282 -0.00686048
0.06394705 0.00889341 0.00200007
-0.02484729 0.05951160 -0.00114909
-0.02568758 0.06053656 -0.00076783
0.03782974 0.05387958 -0.00030121
-0.05119648 -0.04199841 0.00946968
0.05567865 0.03181474 0.00461623
0.01777972 -0.06160590 0.00808830
0.06267948 -0.01773541 0.00121269
0.06576801 0.00327675 0.01067126
-0.02665480 -0.06105983 0.00536057
0.04230644 0.04729950 -0.00359780
0.06494280 -0.00430229 0.00842206
0.02482171 -0.05930995 0.00198258
-0.06501347 0.00693845 -0.00453896
-0.05623370 0.03068558 0.00186320
-0.05422993 -0.03370800 0.00196669
0.06524360 -0.00353360 0.01057864
-0.02072674 0.06172655 -0.00441565
-0.01857706 0.06306591 -0.00806390
0.01672588 0.06130937 -0.01208698
0.00728905 0.06582291 -0.00576485
-0.03366663 0.05432358 0.01009199
0.05006178 -0.03964058 0.00245473
-0.06273305 0.01268888 -0.01144861
-0.01628334 -0.06337634 -0.00771813
-0.04389018 -0.04600045 0.00510499
0.02076554 0.06053317 -0.00707490
0.05371794 0.03554123 0.00333310
0.06217849 -0.01729377 0.00428036
-0.04420267 -0.04623450 0.00759528
0.01738830 -0.06156504 0.00249032
0.02829571 -0.05909478 -0.00850778
-0.06618410 -0.00415316 -0.00853288
0.02017190 0.06111006 0.00562996
0.03087201 0.05835713 -0.00076309
0.04156149 -0.04905560 0.00491629
0.06588541 0.00019458 0.00542014
-0.05304596 0.03794591 -0.00689657
0.04630937 0.04675540 -0.00302829
-0.04222218 -0.04789727 0.00342238
0.06581386 0.00331529 0.00427749
-0.02797531 -0.06059363 -0.00343010
0.01308304 0.06364042 -0.00616328
0.02420334 0.06139345 -0.00802288
0.05722811 0.03364942 -0.00479571
0.06283018 0.01886276 -0.00639465
-0.01674390 -0.06269219 -0.00781530
-0.06329385 -0.00738557 0.01095870
0.01090864 0.06380937 -0.00240918
-0.00815147 -0.06421991 0.01155680
0.02173667 -0.06150877 0.00125568
-0.04460848 0.04544248 0.00600651
-0.04341826 -0.04828426 0.00695719
0.06283859 0.00978968 0.00516093
0.03856156 -0.05299557 -0.00076858
0.03316332 -0.05651312 -0.01091693
0.00130083 -0.06447651 0.00512218
0.06332491 -0.01547941 0.00685111
0.04752516 0.04528783 -0.01118084
0.01995580 0.06324772 -0.00051137
0.06388586 0.00220055 -0.01005036
0.04812391 0.04347711 -0.00358871
-0.03841707 0.05311444 0.01130464
-0.02606230 0.05942848 0.01169131
-0.04842997 -0.04293417 0.00979712
-0.00902650 0.06598565 -0.00443481
-0.05087784 0.03998763 0.01147320
0.00325958 0.06373310 -0.00165421
-0.06254962 0.02109586 0.01040127
-0.04030485 -0.05297787 0.00423227
0.02764268 -0.05872012 -0.00596832
-0.05927258 -0.02610932 0.00217952
-0.02490315 -0.05894221 -0.00651038
0.04105407 0.05079112 0.00218574
-0.04550999 -0.04619729 -0.00448705
-0.04312968 -0.04901839 0.00513937
-0.03162975 -0.05741914 0.00163319
0.05764126 0.02931501 0.00140401
0.03198318 -0.05788955 -0.00191391
-0.06174283 0.02019978 -0.01043048
0.04865820 0.04332414 0.01063146
0.06204141 0.02256945 -0.00855614
-0.06253628 0.01642214 -0.01059877
0.02062582 -0.06331220 -0.00231508
-0.01874446 -0.06079819 0.00332467
-0.04472467 -0.04661999 -0.00277982
-0.06457040 -0.00149889 0.00823678
-0.04708158 0.04402662 -0.00060036
0.01564203 0.06276626 -0.00804189
-0.01946202 -0.06280263 -0.00586433
0.04759988 -0.04535723 0.01189083
-0.03718020 -0.05441882 0.00636431
-0.03392075 -0.05689482 0.01027225
-0.05440940 0.03816894 0.00679247
0.01020177 0.06329052 0.00183065
0.06514931 0.00913938 0.00797750
0.03403790 -0.05575565 0.00319089
-0.06627751 -0.00455323 0.00501968
-0.06093456 -0.02682675 -0.00200398
-0.06378307 0.01450081 -0.00134615
-0.04813322 -0.04438565 0.00357968
-0.06293932 -0.00846412 -0.00068641
-0.03985471 0.05162100 0.00100299
-0.02251750 -0.05957726 0.00252188
0.06483436 -0.01446588 -0.00875471
0.05171945 -0.03733095 -0.00362560
-0.04305544 0.04928541 0.01211145
0.00185223 -0.06642541 0.01116767
-0.06229394 0.02025566 -0.01036042
-0.05501401 -0.03673567 0.00325972
-0.03059159 0.05819084 -0.00435950
-0.06564298 -0.00478997 -0.00158266
-0.02505605 -0.05906682 0.00366990
0.04126057 -0.04936945 -0.00986527
-0.06416470 -0.00435430 0.00615045
-0.00256221 -0.06560338 0.01011994
0.05576773 0.03236963 0.00492577
-0.03775763 0.05096016 0.01214934
-0.04496146 -0.04763289 0.00573084
-0.04784666 -0.04447801 0.01001909
-0.03421507 -0.05401453 -0.00602121
0.02358209 0.05962091 -0.00438823
0.06362302 0.00724309 0.00166700
0.04851289 -0.04521375 0.01012340
-0.06037213 -0.02323756 -0.00349363
-0.05922093 0.03071231 -0.00497386
0.02667794 -0.05970640 -0.00555200
-0.01499069 -0.06458805 -0.00493191
0.03737776 -0.05401402 0.00052919
-0.06187736 -0.01992994 0.00187898
-0.03303330 -0.05439877 0.01086283
-0.04469664 0.04534992 0.00275291
-0.05912153 0.02356081 -0.00403173
0.05858881 0.02715442 -0.01077224
0.04993355 -0.03966383 -0.01132964
-0.06336978 0.00270464 -0.00601277
-0.04127108 0.04857201 -0.00377569
0.04461750 0.04919974 -0.00489990
-0.06568814 -0.00054836 0.00353361
-0.01560274 0.06376110 0.00180321
-0.02240051 -0.05960666 -0.00583005
0.05088564 0.04158992 -0.00053961
-0.06394786 0.00102079 -0.00363054
0.05622105 0.03476897 -0.00425762
-0.00502182 -0.06435614 0.00226517
0.03507694 -0.05416554 0.00786133
-0.03660491 0.05292800 0.00318990
-0.05593177 0.03239127 -0.00100732
0.05675292 0.02876089 0.00688990
0.05794846 -0.02577177 -0.01213033
0.04568761 0.04409055 -0.00615793
-0.01287373 -0.06396697 -0.00089881
-0.02294312 -0.06256380 0.00839842
0.00312887 -0.06618098 -0.00099860
-0.06193816 0.01550429 0.00738272
-0.04657423 -0.04436925 0.00671322
-0.02103613 -0.06035048 -0.01151939
-0.05764194 -0.03267368 -0.00700142
0.04038024 0.05264387 0.00439042
0.06032206 0.02725308 0.00977693
-0.05980943 -0.02579728 -0.00042484
-0.06089759 0.02164439 -0.01142379
-0.06538875 -0.00771873 0.00912346
0.02813044 0.05790832 -0.00490277
0.04925553 0.04192220 -0.00942565
-0.03026063 -0.05648182 0.00673558
-0.03746455 -0.05318986 -0.00179215
-0.06272374 0.01512839 -0.00647368
0.04141527 0.04952104 -0.00215344
0.06069791 -0.01925618 -0.00036932
-0.06314496 -0.01485301 -0.00601345
0.05331958 0.03877371 0.00660276
0.05453531 -0.03751400 0.00288917
0.04619196 -0.04723014 0.00976955
0.02893631 -0.05769415 0.01103015
-0.03889668 0.05162178 -0.01092449
0.00195243 -0.06619000 0.00954121
0.04538534 -0.04682737 -0.00512950
-0.06518353 0.00725132 -0.00989932
-0.01803223 0.06334826 0.00593832
0.06537312 -0.00877982 0.01144165
-0.06090740 -0.02438618 -0.00717515
0.01882165 0.06346745 -0.00983668
-0.04866934 0.04304941 -0.00606574
0.04418573 -0.04958174 0.00460337
-0.06072516 -0.01978457 0.01205623
-0.06171776 -0.02204586 -0.00530843
0.04114496 -0.05233217 -0.00611902
-0.04662826 0.04657471 -0.00878363
-0.05443108 0.03524751 0.00979732
0.02974230 -0.05835388 -0.00171736
-0.00481418 -0.06500946 -0.01147037
0.06101496 -0.02454041 0.01073082
0.06461156 -0.00932628 -0.00202720
-0.06166874 -0.02293670 0.01129253
0.04325773 0.04739918 -0.00095212
-0.01735820 -0.06410643 -0.00969694
0.04630545 -0.04365520 -0.00432350
0.06356013 0.01140501 -0.01178157
0.00820930 0.06348861 0.00381036
0.05792075 -0.03255993 -0.00229027
0.06018112 -0.02667535 -0.00654947
-0.01600784 -0.06159798 0.00853776
-0.02670754 0.05908724 0.00064799
0.05975756 -0.02538942 0.01014478
0.01941696 0.06038223 -0.00248461
-0.05628950 -0.03323140 -0.01106176
0.06508987 -0.00083792 0.00838823
0.03741144 -0.05364981 -0.00462831
-0.00425816 -0.06408266 -0.00116809
-0.02258233 -0.05945760 0.00894339
0.03966338 -0.05128388 -0.00191815
-0.00257437 0.06612991 0.00416777
0.06325325 0.01641390 0.00787550
0.06237694 -0.01450311 0.01196229
-0.05224441 -0.03817088 -0.00545385
-0.04133871 -0.05111040 -0.00020562
0.04032626 0.05214588 -0.00397603
0.00865767 0.06540345 0.01195050
-0.06425661 -0.01512214 -0.01116039
-0.04616968 0.04680392 -0.01101985
-0.05980174 -0.02840036 -0.00139885
0.04665453 -0.04675563 0.00538846
0.06338368 -0.00193659 0.00137379
-0.03788998 -0.05184529 -0.00759695
-0.01389206 0.06381624 0.00296064
0.06446049 -0.01239966 0.00292861
-0.05060266 0.04081234 -0.01051668
-0.06349353 0.00486795 -0.00737095
-0.04635557 0.04725687 0.00731407
0.06343292 0.00161896 0.00366372
0.02732170 -0.06004433 0.00852050
0.05503762 -0.03674695 -0.00821741
0.02155196 0.06243947 0.00882349
-0.00179719 0.06404523 0.01037791
-0.01928860 -0.06083160 0.00398163
-0.06284869 0.01072627 0.00974956
-0.06534077 -0.00840517 0.01043785
-0.05503504 0.03662827 -0.00219836
-0.06491832 -0.00483980 -0.00393773
0.03384596 -0.05535467 -0.00062455
-0.03211489 0.05618504 0.00835135
-0.03940505 0.05204912 -0.01183119
0.06001164 -0.02559842 -0.00756949
-0.06540400 0.01200107 0.00491811
-0.00071558 0.06636549 0.01191935
0.02366114 -0.06039940 -0.00206423
-0.06372162 -0.00640854 -0.00128509
0.03986631 -0.05208204 -0.01164254
0.04042230 -0.05042274 -0.00409121
0.00441383 -0.06363258 0.00903434
0.06182483 0.01447235 -0.00751926
-0.00719798 -0.06390870 0.00947538
-0.05069717 0.03915490 -0.00495155
0.01427952 -0.06198779 -0.00189830
-0.05274216 0.03794233 -0.01146087
-0.02118177 -0.06028026 -0.01108360
0.00791567 0.06371301 -0.01061324
-0.02825663 0.05854287 -0.00948585
-0.05386773 -0.03685639 -0.00347775
0.06535690 -0.01233485 -0.00247185
-0.03926222 0.05213233 -0.00791076
-0.05918313 0.02742659 -0.00508572
0.06317621 0.00565089 0.00886881
0.06362468 0.00261875 -0.01040265
-0.04809548 -0.04259953 -0.01138600
0.05400568 0.03607520 -0.00099592
-0.01571110 -0.06245811 0.00495331
-0.04372454 0.04664186 -0.00753222
0.03088791 -0.05894882 -0.01093688
0.05310160 -0.03767503 0.01012462
0.06308045 0.01668935 0.00612477
0.03275629 0.05633725 0.00532644
-0.00410491 0.06338382 0.00654535
-0.04775943 0.04517441 0.00963538
-0.06502009 -0.00184564 -0.00195212
-0.06606976 0.00647357 0.00210022
0.06073049 -0.02082302 0.01183485
0.06275231 0.02095189 -0.00236531
0.06117250 0.02141347 -0.00662106
-0.04746139 0.04627820 0.00418856
-0.06429050 0.00074484 0.00093851
0.02462275 0.06175335 0.00921974
0.02685036 -0.05860150 0.00769600
0.01233188 0.06397442 0.00548702
-0.03973282 0.05333853 -0.00009408
-0.05646034 -0.03478478 -0.01201455
0.05775566 -0.03210411 -0.00534766
0.03141100 0.05779722 -0.00587942
-0.06310376 -0.01894968 -0.01213541
0.04946589 0.04008414 -0.00765235
-0.06331961 -0.01178206 0.00416218
0.06366549 -0.01644929 -0.00468828
-0.04595781 -0.04782707 -0.00168885
-0.00089243 0.06406021 0.00593599
0.05589999 -0.03198553 0.00596518
-0.03086445 -0.05732010 0.01139109
0.06346813 -0.00582554 0.00340379
0.04149848 -0.04870717 -0.00665284
-0.02333566 -0.06000543 0.00959726
-0.04894664 0.04344104 -0.00161493
-0.03445098 -0.05390899 -0.00643990
-0.01112438 -0.06431563 -0.00507666
-0.05514172 0.03544653 -0.00508156
-0.01659027 -0.06451430 -0.00612069
0.06466367 0.01011670 -0.00718731
0.06624303 0.00665609 0.01058375
-0.01621631 -0.06260450 0.00603976
-0.06415983 -0.00790110 0.00904631
-0.06469653 -0.00917663 0.00928299
-0.01739087 -0.06327097 0.00529751
-0.02293869 -0.06160096 -0.00132886
0.00153831 0.06348183 0.01105301
0.06494852 0.00968467 0.00915638
0.06128375 0.02020618 0.00955394
-0.02332354 -0.06224955 -0.00034649
0.00785584 0.06607355 0.00258790
0.05844261 0.02921645 0.00161529
0.05851290 -0.02821038 0.00322599
0.06329426 0.02104998 -0.00798791
-0.02015842 0.06133234 0.01136431
0.06145243 -0.01851197 0.00631851
0.06118070 -0.02268089 0.00452745
0.00784038 -0.06596490 -0.00870718
0.02354295 -0.06095851 0.00834890
0.06561753 -0.00028939 -0.00979385
-0.03250103 -0.05618665 0.00951915
0.06416981 0.01745421 0.00653343
0.03827095 -0.05261562 0.00485106
0.00817984 0.06576720 0.00460761
-0.01833164 0.06096644 -0.00274977
-0.06069001 -0.02431612 0.00481786
0.06317025 0.01114030 -0.00729497
0.01078935 -0.06544412 -0.00850480
-0.03495870 0.05291692 0.00244010
-0.05225246 0.03968530 0.00739420
-0.00392252 0.06592604 0.00509891
-0.01975790 0.06172269 -0.00633932
0.02999290 -0.05756518 -0.00686090
-0.04981594 -0.04095833 0.00814685
-0.01313947 0.06274736 0.00540612
-0.03013745 -0.05936060 0.00079761
0.01788059 -0.06312707 -0.00052577
-0.05070432 0.04002045 -0.01132666
-0.06658567 -0.00005891 0.00557598
-0.02886209 -0.05748597 -0.00719202
-0.06109865 0.01702531 -0.00328524
-0.04113592 0.04983363 0.00641577
-0.03682428 0.05398167 0.01003419
-0.00507292 0.06536706 -0.00707286
0.06263929 0.01802910 0.00820384
0.02290862 -0.06092132 -0.00920235
-0.06332528 -0.01497487 0.00031973
-0.03455137 -0.05487095 -0.01092683
0.05160565 -0.03726122 -0.01102828
0.06197994 0.02204939 0.00023293
0.00071629 0.06354380 -0.00105321
0.03007452 -0.05900229 0.00814856
0.02783031 0.05712375 -0.00294931
0.04552502 -0.04617735 -0.00298074
0.03010833 0.05795876 -0.01019751
-0.01846844 0.06114702 0.00472672
0.05410300 -0.03343629 0.00999345
0.06326952 -0.00794824 0.00699463
-0.01091197 0.06552490 -0.00594111
-0.02984082 0.05741885 -0.00346855
-0.05261107 -0.03644882 0.01035305
-0.03603947 -0.05544424 -0.00691746
-0.06101799 0.02282885 -0.00640268
0.02549475 0.06159599 0.00751866
0.06385673 -0.00708626 0.00280742
-0.05945101 -0.02899133 0.00336078
-0.06525297 0.00747002 -0.01112816
0.06503199 0.00141997 0.00099021
-0.01866072 0.06235339 -0.00851507
-0.03118405 -0.05724292 0.00503471
-0.03854588 -0.05448801 0.00767238
-0.03055923 0.05785610 0.00687604
0.03996028 -0.05286840 -0.00446864
0.03057960 0.05653379 -0.00377566
-0.03022363 -0.05805856 0.00214060
-0.04935415 -0.04081937 0.00125194
-0.05918115 -0.02959246 -0.00820393
-0.01811132 0.06348586 0.01125683
0.00851449 0.06376286 0.01028335
0.03507173 -0.05314404 0.00264430
-0.03858601 0.05165707 -0.01087749
0.01704244 0.06239506 0.00289252
-0.06265825 -0.01197665 -0.00026141
0.06213927 0.02256909 0.01089462
0.04048602 0.05071856 0.00837121
-0.01224432 -0.06363796 0.00764615
-0.04631231 0.04355433 0.01041336
0.00800876 -0.06489945 -0.01199667
-0.02513841 -0.06152226 0.00727123
0.05186659 0.03697197 0.00781778
0.04430207 0.04800871 -0.00978063
0.04630432 0.04727468 0.00498125
-0.05848761 0.02690796 -0.00444306
0.06363928 -0.01084074 -0.00448235
-0.00973871 0.06533201 -0.01200168
0.06340803 -0.00802675 0.00692019
-0.06209379 0.02428651 0.00419046
0.03498673 0.05644804 -0.01052513
-0.03741501 0.05416944 0.00805438
0.03566472 0.05270592 0.00304948
0.00933156 -0.06315570 -0.00453037
0.04268607 0.05021388 -0.01150479
0.03920055 0.05297240 -0.00017123
-0.03390608 0.05530416 0.00405276
0.03797492 -0.05406903 -0.00080731
0.06039858 0.02571429 -0.00180698
-0.03118985 -0.05859687 -0.00354231
-0.01848514 0.06374400 -0.00849618
0.05071577 -0.04271801 0.01109658
0.06441884 0.00685458 0.00563114
0.02565904 -0.05893163 0.00707018
0.00571427 0.06366045 0.00708338
0.02113089 0.06304078 0.00149816
-0.06131697 -0.02351095 0.01003610
0.01360988 0.06208514 -0.00791665
0.01308172 0.06388108 0.00136475
0.05329663 0.03591339 -0.00431497
0.00659859 -0.06610018 0.00371650
0.03397211 -0.05413476 -0.00250119
0.06362668 -0.00039819 0.01083283
-0.04581096 0.04825511 -0.01123359
0.05808491 -0.03163174 0.00952470
0.03604651 0.05468617 -0.01193637
0.01169927 0.06471530 0.00706537
-0.03990738 0.05267524 0.00779831
-0.04245766 -0.04845109 0.00987608
0.06292562 -0.01764110 0.00508380
0.04679588 -0.04699354 -0.00828799
0.04221276 0.04851779 -0.00953173
0.04288966 0.04793301 -0.01159910
0.05915552 -0.02894146 0.01003355
0.01157645 -0.06259589 0.00861606
-0.06155765 0.01571081 0.00373410
-0.00086267 -0.06441528 -0.00506520
-0.05441782 -0.03271776 0.00549396
-0.04002668 -0.05248249 -0.00776210
0.05600073 0.03301702 0.00309347
0.00023962 0.06458427 0.00453352
0.05992669 -0.02524059 0.00946816
0.00025691 -0.06456008 0.00172132
-0.03432146 -0.05591402 0.00308836
-0.05066784 -0.03877476 0.00241515
0.04686890 0.04625659 0.00811088
-0.06327067 0.00585566 -0.00876101
0.06568514 -0.00293061 -0.00277438
-0.03974572 -0.05053975 0.00037799
-0.05781191 0.03321093 0.00859532
0.05909264 0.02330845 -0.01133845
0.06346601 -0.01751221 -0.00245567
0.06512976 0.01216731 0.01193796
-0.04602357 -0.04560738 0.00639046
0.03097019 -0.05843421 -0.00011169
0.03563034 -0.05359247 0.00865423
-0.01924053 0.06100840 0.00309255
-0.02125729 0.05998098 0.00035754
-0.05419651 -0.03411307 0.00626471
0.06210041 0.02310990 0.00682079
-0.03088994 -0.05850611 -0.00724775
-0.06469790 -0.00796500 -0.00500323
0.03717523 0.05292123 0.00995516
-0.05484503 0.03347975 -0.00461362
0.03900005 -0.05372973 0.00044062
0.00808485 0.06446204 0.00855200
0.06429010 -0.00497269 0.00510519
-0.00677751 0.06593988 -0.00185394
-0.04487203 -0.04859624 -0.01077992
-0.05861135 -0.02771074 -0.00111492
0.06361263 -0.00221223 -0.00361519
0.05707438 -0.02790702 -0.00369063
-0.02321997 0.06022742 0.00966078
-0.00468358 -0.06606724 -0.00078961
0.04534622 -0.04831687 0.00217856
0.00738857 0.06298237 -0.00210473
-0.05501640 -0.03232697 0.00612269
0.04042648 -0.05290641 0.01096745
0.02301406 0.06143598 0.00361193
-0.01594977 0.06288736 -0.00775954
0.01131371 0.06411774 -0.00601937
-0.05158718 -0.04010491 0.00463852
-0.01675438 0.06220138 -0.00688512
0.05554007 0.03471369 -0.00942367
0.00879886 0.06398104 -0.00311234
-0.06377866 0.01456676 -0.00814572
0.05440330 0.03424817 0.00268114
-0.03000341 -0.05868358 0.00071136
-0.02113119 0.06213812 0.00208335
-0.01529874 -0.06342340 0.00110144
0.05943754 -0.02243164 -0.00332464
-0.03920366 0.05065922 0.00057631
0.06178031 0.02512690 -0.00300318
-0.05309970 0.03506270 -0.00566296
-0.06295124 -0.00917912 -0.00344912
-0.02862509 0.05661710 0.01170412
-0.05094281 0.04029697 0.00795632
0.03343557 0.05413162 0.00687540
-0.04422893 0.04782283 0.01091150
-0.06449638 -0.01193095 0.00330664
-0.06496501 0.00664395 -0.00427883
-0.04234499 0.04896348 -0.00739547
0.06522359 0.00379293 0.00211316
-0.04036694 -0.05208865 -0.00534752
0.06445396 -0.00165762 -0.00231600
-0.05570085 0.03229271 0.00991650
0.06326914 0.01149620 -0.00655069
-0.06530413 -0.00644334 0.00861236
0.01402140 0.06338995 -0.01084996
0.04464636 -0.04605979 -0.00969075
0.06377732 0.00012213 -0.01175601
0.06188330 -0.02095349 0.00132362
0.02936514 0.05890414 -0.00515711
0.06490554 -0.01274009 -0.01171956
-0.03296295 0.05470018 -0.00648632
-0.03826101 0.05380639 0.00606526
0.01992211 0.06128960 0.00430036
0.02128709 0.06030365 -0.00627535
0.03279300 -0.05604222 -0.00412003
0.02749938 0.05856945 0.00422549
0.04259929 0.04849513 0.01198979
0.06318689 0.00646473 0.00840886
0.06158803 -0.02155022 0.00694272
0.01788848 -0.06113209 0.01153359
-0.06282797 0.02021346 -0.01029822
0.03886013 -0.05041064 0.01064090
0.00334285 0.06392372 0.00100685
-0.06549852 -0.00305618 -0.00857464
-0.06062906 0.02461339 -0.01193354
-0.02597402 -0.05994624 -0.01021475
-0.05981745 -0.02955049 -0.00927694
-0.06449407 0.01678228 -0.00069479
-0.03090279 -0.05839278 -0.00399554
-0.04045232 0.05056993 0.00350982
-0.00797861 -0.06418545 -0.00467721
-0.03656356 0.05526005 -0.00766050
0.01096539 -0.06484109 -0.00238005
0.06241716 0.01388697 -0.01092875
0.03232322 0.05664775 0.00404016
0.04135746 -0.05038208 -0.00344709
0.01315241 -0.06259314 -0.00857276
0.01400588 0.06475273 -0.00210950
0.00916835 -0.06349115 0.00685202
-0.00894563 -0.06366717 0.00556054
0.03292743 0.05525551 -0.00788755
0.06322850 -0.00675489 -0.01137312
-0.03943132 -0.05157534 -0.01097699
-0.05654412 0.02904409 -0.00550436
0.04294547 0.05067453 -0.01102014
0.05781440 0.02870858 0.00433548
0.06343360 -0.01367830 0.00784746
0.00494022 0.06538492 0.00169040
-0.02411601 0.06124806 0.00458145
0.06259529 -0.01130400 -0.00535710
0.05064401 -0.03865841 0.00239418
-0.06425284 -0.00978258 0.00855666
-0.02536676 0.06133817 0.00789004
-0.01689352 -0.06329607 -0.00534253
0.04310463 -0.04946283 0.00408688
0.00063408 -0.06617723 0.00849282
0.04844330 -0.04290700 -0.00020825
-0.00298013 0.06339509 -0.00949701
-0.02413821 0.05941605 0.00930133
-0.05975765 0.02788747 -0.01072582
0.05828222 0.03003271 -0.00324076
0.04965694 -0.04428818 0.00956863
-0.06590006 -0.00050130 0.00791152
0.03119484 -0.05820255 0.00823757
-0.06214049 -0.02040099 -0.00331367
0.04032111 -0.04940776 0.01045440
0.00072486 -0.06414119 0.01014621
0.03091764 0.05822764 -0.01055018
-0.00378889 0.06391678 0.00964036
0.00634973 -0.06542792 -0.00915492
-0.06389140 -0.01196059 0.00630212
-0.01755918 0.06431010 -0.00997114
-0.01493793 0.06193853 -0.00849216
0.06073968 0.02426222 -0.00963073
0.06267762 -0.02260665 -0.00500962
-0.03433699 -0.05676384 -0.00955872
0.05521808 0.03555142 0.01130396
0.05450246 0.03242418 0.00463456
-0.06614115 -0.00176266 -0.00283688
0.02769336 -0.06069136 0.00276587
-0.05412079 0.03421305 -0.00255135
-0.03062899 0.05694789 -0.00049541
-0.01306261 -0.06515761 -0.01077792
-0.06074734 0.02448860 0.00251997
0.06058860 -0.02320332 0.00940672
0.00235052 0.06594086 -0.01199261
0.06647113 0.00136520 0.00309456
0.04263321 -0.04809265 -0.00722923
-0.05363235 -0.03628687 0.01137785
0.00447625 0.06414961 0.00404770
-0.05222902 -0.03684993 -0.00843856
0.03294565 -0.05479321 -0.00560314
0.00202759 0.06422491 -0.00280147
0.01170457 0.06344986 -0.00177667
0.06151664 -0.02417690 0.00343765
-0.00704749 -0.06430471 -0.00202348
-0.04962802 0.04151529 -0.01209906
-0.03410390 -0.05560611 -0.00240711
-0.03172394 0.05791844 -0.01126932
0.06631421 -0.00597892 0.00113574
-0.06338082 0.01179628 0.01204127
0.05271794 -0.04000989 0.00021720
0.04999697 -0.04283897 -0.00759314
-0.06503059 0.00078236 -0.01077891
0.01316417 0.06234453 -0.00873071
