ply
format ascii 1.0
element vertex 1357
property float x
property float y
property float z
end_header
-0.03470137 -0.03694758 0.00054458
-0.05181647 -0.04495660 0.00015670
-0.06007408 -0.05549903 0.00042057
-0.05839337 -0.04990043 -0.00057674
-0.04545686 -0.04871059 0.00076722
-0.05229699 -0.05571535 0.00100144
-0.04747842 -0.03682956 -0.00045262
-0.05752880 -0.04646077 -0.00094259
-0.05671373 -0.04654306 -0.00082102
-0.04164447 -0.03697254 0.00025948
-0.03936054 -0.03333018 0.00057087
-0.04791872 -0.04947883 0.00081424
-0.05836238 -0.05173620 -0.00020517
-0.04804995 -0.04365217 0.00051124
-0.04545590 -0.04015742 0.00015631
-0.05319859 -0.04425482 -0.00049626
-0.03214716 -0.03934135 0.00011049
-0.05347811 -0.04245069 -0.00066439
-0.03505642 -0.03980580 0.00030875
-0.04868730 -0.05279250 0.00088715
-0.05488687 -0.05660298 0.00100042
-0.03811594 -0.04343946 0.00043252
-0.05249082 -0.04653503 0.00027285
-0.06044356 -0.05290184 -0.00016367
-0.05900236 -0.05022033 -0.00065084
-0.05991933 -0.05877660 0.00075055
-0.04102579 -0.04063866 0.00069478
-0.04223585 -0.04458457 0.00068780
-0.04862361 -0.05050992 0.00073806
-0.04576536 -0.03733388 0.00014462
-0.05892220 -0.05025146 -0.00062638
-0.04077203 -0.03555805 0.00057499
-0.03517651 -0.03463941 0.00040402
-0.06065213 -0.05688583 0.00034098
-0.05577779 -0.04700087 -0.00055376
-0.06008983 -0.05502146 0.00009244
-0.05203156 -0.05118458 0.00078806
-0.05633455 -0.05525938 0.00067711
-0.05661307 -0.04950197 -0.00027215
-0.05130573 -0.04243367 -0.00014259
-0.05151849 -0.05508519 0.00097847
-0.05651506 -0.05395642 0.00068602
-0.06307994 -0.05241722 -0.00111390
-0.05924805 -0.05880035 0.00082932
-0.03817036 -0.04103894 0.00058141
-0.06004537 -0.05383502 0.00012280
-0.04900464 -0.04310007 0.00034301
-0.03467079 -0.03369797 0.00068968
-0.04784547 -0.04606868 0.00069708
-0.03993105 -0.04049204 0.00046927
-0.03645936 -0.03363754 0.00038798
-0.03535350 -0.04185497 0.00030292
-0.03969139 -0.04337606 0.00049244
-0.03312275 -0.04013865 0.00016779
-0.05892050 -0.05050816 -0.00031906
-0.05435032 -0.05737706 0.00105764
-0.04953144 -0.05167609 0.00078551
-0.03920685 -0.02993068 0.00037479
-0.04217542 -0.03385476 0.00030852
-0.04204922 -0.03541298 0.00011258
-0.05497644 -0.05486113 0.00088422
-0.05827493 -0.06040346 0.00112552
-0.06006261 -0.05234056 -0.00019536
-0.06196813 -0.05390383 -0.00056963
-0.04642567 -0.03611923 -0.00012966
-0.05014910 -0.04209304 0.00002849
-0.05193423 -0.05027936 0.00073186
-0.04452350 -0.04921846 0.00073407
-0.04162405 -0.03369360 0.00003135
-0.04262563 -0.03538803 0.00004937
-0.05974542 -0.06174183 0.00117493
-0.05404706 -0.05253908 0.00058105
-0.04879684 -0.05288123 0.00089091
-0.05305251 -0.05502986 0.00089903
-0.03870746 -0.04230782 0.00045723
-0.05096908 -0.04928912 0.00051460
-0.03304629 -0.04007618 0.00016335
-0.05064475 -0.05152699 0.00072954
-0.05596131 -0.04692544 -0.00060462
-0.03893944 -0.03558461 0.00035593
-0.04872424 -0.04136288 0.00017127
-0.04927860 -0.03762687 -0.00057653
-0.04164080 -0.03760847 0.00029984
-0.04886670 -0.04312247 0.00005931
-0.05692727 -0.05565210 0.00082147
-0.05875769 -0.05697248 0.00063295
-0.05914881 -0.06035430 0.00108756
-0.06193108 -0.05142178 -0.00107534
-0.05706216 -0.05262831 0.00044765
-0.04181120 -0.03304815 -0.00003432
-0.05643116 -0.04533258 -0.00086741
-0.04077739 -0.03747112 0.00034654
-0.05519614 -0.04504918 -0.00055595
-0.05937936 -0.04844582 -0.00100642
-0.03570502 -0.04224610 0.00031254
-0.05931603 -0.05922253 0.00087837
-0.05208620 -0.04648030 0.00003808
-0.04925041 -0.05324864 0.00090628
-0.04613839 -0.05072678 0.00079452
-0.05320650 -0.04182869 -0.00076735
-0.04686245 -0.03963256 -0.00007301
-0.06025162 -0.05774323 0.00072638
-0.05662872 -0.05569121 0.00070057
-0.04885276 -0.04768327 0.00073516
-0.04158114 -0.02942350 -0.00011674
-0.05906909 -0.05383916 0.00031262
-0.04539517 -0.03348228 -0.00035863
-0.06259393 -0.05245225 -0.00089337
-0.05681463 -0.05899777 0.00106952
-0.04785714 -0.04571003 0.00067672
-0.04193300 -0.03482814 0.00041960
-0.04493282 -0.04607769 0.00059316
-0.05759357 -0.05533348 0.00072864
-0.06204990 -0.05320974 -0.00051683
-0.04480291 -0.04276993 0.00042308
-0.05983826 -0.05665645 0.00043363
-0.05131991 -0.04563233 0.00003493
-0.05170282 -0.04390877 0.00001757
-0.05237423 -0.04878562 0.00056298
-0.04877196 -0.04232321 -0.00002561
-0.05201781 -0.05422967 0.00094175
-0.05331755 -0.04541131 -0.00005059
-0.04717778 -0.04182798 0.00012754
-0.03553302 -0.03291220 0.00071723
-0.03828907 -0.03642677 0.00040461
-0.05062093 -0.04123609 -0.00046209
-0.03678468 -0.03660251 0.00041781
-0.05583221 -0.05699040 0.00091695
-0.04285701 -0.04806448 0.00066074
-0.05968248 -0.05255802 -0.00032396
-0.04430450 -0.04416231 0.00072475
-0.06090607 -0.05890522 0.00064356
-0.06269674 -0.05312891 -0.00092493
-0.05294748 -0.04750996 0.00005471
-0.05597463 -0.04688347 -0.00036537
-0.04593841 -0.03458478 -0.00041310
-0.03994379 -0.04569741 0.00052827
-0.05612304 -0.04495350 -0.00088961
-0.06059400 -0.05632847 0.00047193
-0.05673786 -0.04842075 -0.00023248
-0.04017295 -0.03719560 0.00066758
-0.04041785 -0.04245289 0.00065544
-0.04212300 -0.02999934 -0.00015277
-0.04939846 -0.04606510 0.00059362
-0.05594550 -0.05866771 0.00109690
-0.05100927 -0.05306905 0.00090669
-0.06083367 -0.05000633 -0.00105187
-0.05516219 -0.04549887 -0.00045122
-0.05079636 -0.03924944 -0.00065381
-0.04414749 -0.03667451 -0.00001813
-0.03753788 -0.03222566 0.00029887
-0.05513264 -0.05801005 0.00107738
-0.04548594 -0.05019771 0.00076922
-0.04313542 -0.03547605 0.00032915
-0.06138982 -0.05598103 0.00002433
-0.05609094 -0.05140824 0.00015968
-0.03665076 -0.03287567 0.00070114
-0.04781116 -0.03772267 -0.00017297
-0.04150385 -0.04581633 0.00057123
-0.05749771 -0.05106865 0.00011577
-0.05663963 -0.05759513 0.00092201
-0.05762304 -0.05646967 0.00084351
-0.05312128 -0.05638250 0.00102477
-0.06240550 -0.05223533 -0.00089358
-0.05304130 -0.05256259 0.00067063
-0.03523183 -0.03295287 0.00071627
-0.04480776 -0.03362680 -0.00015808
-0.04272528 -0.04795752 0.00065503
-0.05842390 -0.05332328 0.00008609
-0.05129071 -0.05490079 0.00097157
-0.04556686 -0.03587576 -0.00027595
-0.06004033 -0.05654629 0.00038277
-0.05708490 -0.05209797 0.00036423
-0.03646687 -0.04286712 0.00035332
-0.04222592 -0.04753324 0.00062932
-0.03956327 -0.04237165 0.00061553
-0.06013220 -0.05631989 0.00032769
-0.04927321 -0.05078560 0.00084426
-0.05001555 -0.04185217 -0.00027936
-0.05122324 -0.05104450 0.00065762
-0.05904174 -0.05319379 -0.00005800
-0.05517226 -0.04393445 -0.00085158
-0.04405418 -0.04270287 0.00045797
-0.05051733 -0.05427463 0.00094756
-0.04901355 -0.03832304 -0.00033645
-0.05792703 -0.05373585 0.00024604
-0.05176474 -0.04457761 -0.00018859
-0.04836913 -0.04178655 -0.00003388
-0.05665270 -0.05140063 0.00006278
-0.05305423 -0.05153752 0.00075283
-0.04941754 -0.05338400 0.00091186
-0.03293292 -0.03701657 0.00038465
-0.05518506 -0.04850978 0.00011286
-0.05892830 -0.05280293 -0.00011190
-0.05542219 -0.04772194 -0.00007447
-0.05477142 -0.04723217 -0.00031193
-0.05653415 -0.05343430 0.00062386
-0.04873672 -0.04214091 -0.00004314
-0.03749340 -0.03199057 0.00029236
-0.03924630 -0.04130164 0.00047043
-0.05651932 -0.04537833 -0.00090493
-0.05164153 -0.04873414 0.00062878
-0.03396749 -0.03466596 0.00037681
-0.04610695 -0.04175845 0.00023881
-0.05311031 -0.05637361 0.00102447
-0.03087135 -0.03829775 0.00003339
-0.05030924 -0.04812455 0.00068288
-0.05292724 -0.04625195 0.00015914
-0.03067717 -0.03813881 0.00002144
-0.05430334 -0.04843412 0.00025707
-0.04939204 -0.04172773 0.00010977
-0.04776706 -0.05169813 0.00082961
-0.05789822 -0.04685697 -0.00095587
-0.03867397 -0.03408487 0.00064623
-0.06215169 -0.05926163 0.00051783
-0.03339419 -0.03919119 0.00021103
-0.05537107 -0.04718995 -0.00016342
-0.03318575 -0.03588024 0.00049067
-0.04478888 -0.04060199 0.00056492
-0.04354240 -0.04745145 0.00070349
-0.03650308 -0.03675263 0.00041479
-0.04644939 -0.04003335 0.00002571
-0.04566944 -0.04961721 0.00073715
-0.05726136 -0.05572384 0.00080080
-0.05651583 -0.04537458 -0.00090480
-0.04930195 -0.05157848 0.00086591
-0.03305394 -0.03612079 0.00046218
-0.05397895 -0.04661163 -0.00026555
-0.05345287 -0.05131540 0.00049894
-0.05278815 -0.04255558 -0.00066351
-0.04146780 -0.04399887 0.00066700
-0.04608195 -0.04967610 0.00078843
-0.04200386 -0.04644773 0.00064306
-0.05815946 -0.04985680 -0.00053324
-0.04055353 -0.03390827 0.00049875
-0.05535793 -0.04419180 -0.00082152
-0.04116872 -0.04025506 0.00044901
-0.03754955 -0.04243638 0.00040852
-0.06394293 -0.05684035 -0.00012437
-0.04893211 -0.04609966 0.00038182
-0.04180506 -0.02966143 -0.00013170
-0.04895938 -0.05301290 0.00089645
-0.05619443 -0.05657152 0.00084288
-0.03634367 -0.04137773 0.00035613
-0.05324819 -0.04187334 -0.00076921
-0.04290010 -0.04551062 0.00058496
-0.05510682 -0.05431585 0.00068361
-0.04472175 -0.04014697 0.00053951
-0.05913942 -0.04940078 -0.00083992
-0.06294112 -0.05836820 0.00042253
-0.05039474 -0.05084789 0.00068960
-0.05215676 -0.05494504 0.00093574
-0.04716209 -0.03620261 -0.00045932
-0.06055580 -0.05694089 0.00057412
-0.04018904 -0.03606377 0.00063371
-0.04996076 -0.05087427 0.00083998
-0.05687448 -0.04575912 -0.00091841
-0.04469089 -0.04402411 0.00071858
-0.06016580 -0.06051646 0.00103771
-0.04216192 -0.03901640 0.00064523
-0.03964256 -0.03422466 0.00059227
-0.05767491 -0.04722581 -0.00074835
-0.06452345 -0.05422970 -0.00102824
-0.06158100 -0.05080837 -0.00107361
-0.05544246 -0.04434749 -0.00087649
-0.04395156 -0.04313142 0.00048465
-0.04316578 -0.04316119 0.00071430
-0.05083602 -0.05393215 0.00093846
-0.05329125 -0.04575596 0.00001282
-0.04199972 -0.03224668 0.00018185
-0.04340108 -0.04761152 0.00064936
-0.04083560 -0.03890462 0.00068357
-0.04548610 -0.03988735 0.00044536
-0.05721948 -0.05886104 0.00106487
-0.04625025 -0.04895186 0.00078797
-0.04828604 -0.04561904 0.00064496
-0.06194551 -0.05537013 0.00002420
-0.04525942 -0.03350564 -0.00028848
-0.03476598 -0.03744968 0.00052019
-0.04460705 -0.03847431 0.00009307
-0.04342545 -0.04852595 0.00068509
-0.03374072 -0.04064336 0.00020335
-0.05263984 -0.05332514 0.00088631
-0.04100556 -0.03749472 0.00064379
-0.05543312 -0.04920049 -0.00009778
-0.04030593 -0.04409279 0.00051590
-0.05962928 -0.05403770 0.00024451
-0.03870662 -0.03090713 0.00049761
-0.04228008 -0.04759599 0.00063553
-0.05266081 -0.04124445 -0.00074263
-0.05645516 -0.04645024 -0.00078468
-0.05288384 -0.04577747 0.00009311
-0.05360513 -0.05675353 0.00103317
-0.04015245 -0.03815878 0.00068465
-0.05243143 -0.05285260 0.00086809
-0.05152294 -0.05387038 0.00093253
-0.04793618 -0.04575686 0.00067505
-0.03704129 -0.04333514 0.00038348
-0.03608715 -0.03726509 0.00040315
-0.03844899 -0.03760131 0.00042641
-0.04281318 -0.03880411 0.00060034
-0.06140486 -0.05473423 0.00001063
-0.04679903 -0.04720825 0.00060062
-0.03687100 -0.04299878 0.00038753
-0.06555414 -0.05573095 -0.00106906
-0.03945409 -0.04408993 0.00054913
-0.05166697 -0.04311781 -0.00010303
-0.04692617 -0.03711879 -0.00008599
-0.05520699 -0.05356497 0.00058554
-0.05698388 -0.05261465 0.00045720
-0.05404264 -0.04519553 -0.00050971
-0.04009724 -0.03020028 0.00027560
-0.05924407 -0.04842050 -0.00101133
-0.05457657 -0.05756013 0.00106345
-0.05873084 -0.04873998 -0.00087016
-0.04751021 -0.04095770 -0.00001215
-0.05551396 -0.04504596 -0.00081397
-0.06079372 -0.05533627 0.00001461
-0.04183190 -0.03657512 0.00054884
-0.03788269 -0.03109077 0.00058347
-0.05771056 -0.04801641 -0.00056717
-0.05102600 -0.04682542 0.00050472
-0.04607871 -0.03985009 0.00037338
-0.04698746 -0.05141508 0.00082647
-0.05852962 -0.04753422 -0.00097795
-0.03915214 -0.02908834 0.00002728
-0.06178177 -0.05567291 0.00012528
-0.04214798 -0.04748870 0.00062969
-0.04620555 -0.03434625 -0.00040648
-0.06259804 -0.05831562 0.00047388
-0.05722547 -0.05932985 0.00109979
-0.04895104 -0.05300614 0.00089617
-0.05704104 -0.04593771 -0.00092464
-0.06044124 -0.05960164 0.00092443
-0.04368144 -0.03165700 -0.00025333
-0.03814235 -0.04331932 0.00048126
-0.04592770 -0.04196084 0.00056723
-0.03721354 -0.04347545 0.00039243
-0.03088628 -0.03830997 0.00003431
-0.05086722 -0.05213279 0.00076567
-0.03798168 -0.04410096 0.00043179
-0.05474989 -0.05547996 0.00083687
-0.04505383 -0.04967367 0.00074069
-0.04596735 -0.04293256 0.00035408
-0.04359251 -0.03945756 0.00058332
-0.06222071 -0.05617013 0.00013357
-0.04378296 -0.04425281 0.00072493
-0.05585191 -0.05859199 0.00109470
-0.04103580 -0.03257385 0.00001854
-0.05294397 -0.04616590 -0.00015023
-0.03643114 -0.03441197 0.00040116
-0.05066784 -0.04393065 -0.00010088
-0.04087316 -0.03081714 -0.00006583
-0.05450581 -0.04925890 0.00007325
-0.04331810 -0.04578525 0.00071179
-0.05537689 -0.05401560 0.00079247
-0.04419158 -0.04194544 0.00066940
-0.05088933 -0.04956521 0.00054774
-0.06002359 -0.05201348 -0.00051718
-0.05115217 -0.04173643 -0.00048736
-0.05078495 -0.04206755 -0.00009678
-0.04467325 -0.03860994 0.00009812
-0.04472159 -0.04957773 0.00073876
-0.05325885 -0.04897146 0.00021997
-0.04625444 -0.03939335 -0.00001716
-0.05791161 -0.05981372 0.00110689
-0.05869137 -0.04928721 -0.00076206
-0.04935932 -0.04558921 0.00028544
-0.04671546 -0.04230250 0.00022833
-0.03203919 -0.03885106 0.00011337
-0.05262496 -0.04120607 -0.00074099
-0.04438061 -0.04275475 0.00069110
-0.03922887 -0.04511593 0.00049379
-0.05607508 -0.05763686 0.00102505
-0.03465056 -0.03525171 0.00038762
-0.04157312 -0.04220891 0.00050116
-0.05630762 -0.05487450 0.00079813
-0.04985188 -0.03823957 -0.00060624
-0.05874904 -0.06076310 0.00114426
-0.04989251 -0.04347910 0.00026258
-0.03666028 -0.03966008 0.00039550
-0.04230952 -0.03985942 0.00038829
-0.06270498 -0.05733174 0.00026934
-0.06405976 -0.05386273 -0.00109769
-0.05071817 -0.04415286 -0.00007800
-0.05916873 -0.05491651 0.00047266
-0.05465800 -0.04348430 -0.00077775
-0.05756674 -0.05082198 -0.00021796
-0.05064461 -0.05203756 0.00087272
-0.05094771 -0.03967454 -0.00067733
-0.05735197 -0.05602526 0.00082272
-0.05755835 -0.05570683 0.00077251
-0.03843925 -0.04043005 0.00044983
-0.05719441 -0.05358640 0.00033684
-0.03430478 -0.03788767 0.00031230
-0.04936744 -0.05207954 0.00081792
-0.05506156 -0.04503512 -0.00052345
-0.05028153 -0.04127048 -0.00012321
-0.03989454 -0.04419192 0.00050463
-0.04709619 -0.04842956 0.00065964
-0.05965405 -0.05224084 -0.00038401
-0.04907399 -0.05286290 0.00089682
-0.05378461 -0.04689905 -0.00018264
-0.05360157 -0.05656913 0.00102966
-0.03654267 -0.03508216 0.00040787
-0.05364105 -0.04955081 0.00050371
-0.05243391 -0.05358228 0.00090491
-0.05308398 -0.05334827 0.00087225
-0.03462905 -0.03479955 0.00064785
-0.04006223 -0.03356010 0.00052353
-0.04017434 -0.02792981 -0.00002064
-0.04748675 -0.05181975 0.00084475
-0.04004785 -0.04020061 0.00046371
-0.03248778 -0.03695969 0.00022175
-0.04630279 -0.03758087 0.00008678
-0.04008407 -0.03708354 0.00036409
-0.03607904 -0.03517884 0.00040985
-0.03984202 -0.03954601 0.00045148
-0.03570640 -0.04090173 0.00032662
-0.03860316 -0.04460682 0.00046298
-0.05272672 -0.04321344 -0.00056308
-0.04992972 -0.05224559 0.00081158
-0.04379273 -0.04882404 0.00070056
-0.05335613 -0.04405454 -0.00030238
-0.05239263 -0.04095737 -0.00073027
-0.04279020 -0.04417883 0.00054853
-0.05022792 -0.05149795 0.00085855
-0.06124535 -0.05366883 -0.00044628
-0.04869094 -0.03699901 -0.00054541
-0.06129237 -0.05739620 0.00032344
-0.04166441 -0.03997212 0.00068634
-0.04832741 -0.04949699 0.00081403
-0.03352802 -0.04046966 0.00019117
-0.04584108 -0.03793224 -0.00011483
-0.05648104 -0.05618641 0.00089930
-0.04292120 -0.03187332 -0.00001727
-0.04287678 -0.03810078 0.00055660
-0.05774012 -0.05837592 0.00100163
-0.05800522 -0.05787528 0.00094380
-0.03935146 -0.04045049 0.00065988
-0.05469342 -0.05287829 0.00055577
-0.04025317 -0.03677053 0.00034104
-0.04400309 -0.03376101 0.00001568
-0.03879134 -0.03628177 0.00068660
-0.04861575 -0.05015543 0.00082971
-0.03520306 -0.04183675 0.00028519
-0.05075076 -0.05209683 0.00087348
-0.05947210 -0.05056389 -0.00045021
-0.04580863 -0.03968499 0.00006933
-0.06140398 -0.05429235 -0.00008614
-0.04334822 -0.03373955 0.00012444
-0.05042955 -0.04648976 0.00053473
-0.04802781 -0.03898200 -0.00031756
-0.05935740 -0.05047302 -0.00044076
-0.06476839 -0.05645601 -0.00068495
-0.05818872 -0.04716855 -0.00096612
-0.03724969 -0.04256807 0.00044189
-0.05970397 -0.05794424 0.00081070
-0.04420338 -0.03726452 0.00002877
-0.03575351 -0.03642937 0.00040225
-0.05292156 -0.04807625 0.00041541
-0.05508613 -0.04728193 -0.00008437
-0.06044462 -0.05652571 0.00052698
-0.04604053 -0.04621129 0.00057108
-0.05264713 -0.04409264 -0.00041856
-0.03491111 -0.04063369 0.00033210
-0.04765925 -0.04773655 0.00077177
-0.04338208 -0.03467873 0.00021817
-0.05022461 -0.04806013 0.00045774
-0.03540674 -0.03892395 0.00048450
-0.04920266 -0.04401330 0.00041908
-0.03324805 -0.04024100 0.00017505
-0.04842804 -0.04185105 -0.00003443
-0.05673665 -0.05082065 -0.00005500
-0.04336379 -0.03455339 0.00020808
-0.04627035 -0.04770937 0.00064207
-0.06423600 -0.05365813 -0.00114196
-0.05618651 -0.05886269 0.00110250
-0.04402714 -0.03202501 -0.00027502
-0.03791121 -0.04139923 0.00054887
-0.05871672 -0.05222269 0.00008505
-0.06552605 -0.05575266 -0.00105714
-0.05630345 -0.05047228 0.00023617
-0.05433307 -0.04999290 0.00021261
-0.05879239 -0.05545676 0.00060492
-0.03979636 -0.03246744 0.00013556
-0.04621400 -0.03435526 -0.00040697
-0.04101513 -0.02882230 -0.00007852
-0.03589500 -0.03577038 0.00040865
-0.04549085 -0.04781900 0.00076578
-0.03471396 -0.04125541 0.00025736
-0.04702108 -0.04890488 0.00068685
-0.04447362 -0.03774740 0.00036963
-0.05685571 -0.04966118 -0.00001474
-0.03722397 -0.03453757 0.00038674
-0.04123507 -0.03028870 -0.00012378
-0.04995316 -0.04086216 -0.00039829
-0.05568706 -0.04677080 -0.00057501
-0.04035556 -0.04603221 0.00054777
-0.05410810 -0.05665469 0.00102421
-0.03334325 -0.04031876 0.00018055
-0.04921268 -0.03755642 -0.00057307
-0.05461079 -0.04959687 0.00037820
-0.05303921 -0.04438688 -0.00044617
-0.04053248 -0.03147028 0.00032230
-0.03467124 -0.04087528 0.00026105
-0.05040401 -0.04773561 0.00064679
-0.04943617 -0.05030333 0.00069499
-0.05593113 -0.05119914 0.00015168
-0.05606812 -0.05349178 0.00047739
-0.04846394 -0.03927922 -0.00007079
-0.05133796 -0.05265768 0.00078453
-0.04509692 -0.03823489 0.00033803
-0.04554773 -0.04294875 0.00038713
-0.06341743 -0.05342533 -0.00103657
-0.04817004 -0.03644266 -0.00051727
-0.04807258 -0.03633859 -0.00051195
-0.05262782 -0.05373936 0.00090772
-0.05267459 -0.04184980 -0.00072722
-0.03589568 -0.04055868 0.00034345
-0.04496030 -0.04839865 0.00075187
-0.04520056 -0.04571783 0.00074552
-0.04803091 -0.04426088 0.00056459
-0.03206622 -0.03786261 0.00015216
-0.04600874 -0.04768105 0.00064585
-0.04478288 -0.03282986 -0.00032165
-0.04878263 -0.03966607 -0.00007494
-0.03457545 -0.03524077 0.00038562
-0.04185166 -0.02971095 -0.00013480
-0.05100332 -0.04393597 -0.00015431
-0.03627733 -0.03797260 0.00040160
-0.05687920 -0.04787260 -0.00038127
-0.05390016 -0.04827436 0.00029870
-0.06423648 -0.05560935 -0.00052422
-0.05067576 -0.04114872 -0.00048251
-0.04026602 -0.04577732 0.00053683
-0.05468447 -0.05017149 0.00018671
-0.05254127 -0.04799155 0.00045489
-0.05022103 -0.05190603 0.00077658
-0.04454300 -0.04670538 0.00074252
-0.03142361 -0.03753483 0.00011059
-0.05156775 -0.04807279 0.00032070
-0.05588993 -0.04775290 -0.00044379
-0.05261796 -0.04993448 0.00065155
-0.05890323 -0.06029632 0.00105682
-0.05275902 -0.05052732 0.00069223
-0.04123410 -0.03332942 0.00004765
-0.04893225 -0.03725680 -0.00055827
-0.05664005 -0.05360949 0.00063264
-0.05284675 -0.05616031 0.00101712
-0.04173924 -0.03895940 0.00066058
-0.05026879 -0.05407338 0.00093966
-0.05034193 -0.03876348 -0.00063114
-0.03986417 -0.04455777 0.00056138
-0.04118942 -0.02900739 -0.00009035
-0.04993973 -0.05175893 0.00086984
-0.04514969 -0.04303382 0.00067424
-0.05750397 -0.05642257 0.00070227
-0.06173619 -0.05532429 0.00006195
-0.04331155 -0.03807085 0.00019381
-0.05027554 -0.04136731 -0.00010667
-0.04662900 -0.03967774 0.00028314
-0.04575537 -0.03556338 -0.00007651
-0.04554109 -0.05024243 0.00077139
-0.03316092 -0.03762250 0.00024605
-0.04342533 -0.04224847 0.00069971
-0.04569146 -0.03590870 -0.00028982
-0.05960560 -0.04983051 -0.00066596
-0.06184699 -0.05539329 -0.00020290
-0.03981219 -0.02778421 -0.00003756
-0.05334479 -0.04675285 -0.00012787
-0.05378781 -0.04694565 -0.00017564
-0.04097643 -0.03995382 0.00069295
-0.06391984 -0.05558374 -0.00067355
-0.03647202 -0.04077464 0.00046858
-0.04635215 -0.04918387 0.00071169
-0.05543428 -0.04565837 -0.00048694
-0.03449268 -0.03555606 0.00060571
-0.04852528 -0.04069799 0.00011639
-0.04518909 -0.04521578 0.00073762
-0.04580484 -0.04673545 0.00060499
-0.05688884 -0.04820099 -0.00031404
-0.05907127 -0.05065760 -0.00057860
-0.05152623 -0.04723777 0.00049196
-0.05250140 -0.04888835 0.00056021
-0.04516238 -0.04496993 0.00073314
-0.06306299 -0.05766620 0.00026344
-0.05671224 -0.05886541 0.00108621
-0.04067441 -0.03803756 0.00037869
-0.04156426 -0.03351886 0.00035843
-0.04894073 -0.05299779 0.00089582
-0.06411046 -0.05352339 -0.00113904
-0.05004316 -0.04380720 -0.00002141
-0.04661314 -0.04814462 0.00078492
-0.04541400 -0.03538991 -0.00003553
-0.04970441 -0.04783707 0.00070134
-0.04911460 -0.04324744 0.00004060
-0.05861737 -0.05121319 -0.00036409
-0.05344719 -0.05458165 0.00083543
-0.04517579 -0.04663961 0.00061310
-0.04333566 -0.03151614 -0.00026542
-0.03345830 -0.03672716 0.00029669
-0.05682079 -0.05937584 0.00111681
-0.04311392 -0.03897274 0.00027948
-0.04441427 -0.04854844 0.00069055
-0.04426392 -0.03227712 -0.00028974
-0.04503936 -0.04135600 0.00030255
-0.04134632 -0.03809422 0.00034660
-0.03906025 -0.03225134 0.00054020
-0.05218636 -0.04154753 -0.00068440
-0.05456525 -0.05550528 0.00085234
-0.04812119 -0.03983789 -0.00023262
-0.03414844 -0.03971301 0.00025110
-0.05748027 -0.05254770 0.00011690
-0.04267813 -0.04160535 0.00045799
-0.03670051 -0.03637492 0.00041652
-0.03758042 -0.04320810 0.00043991
-0.05154652 -0.04705557 0.00019504
-0.05750534 -0.05000057 -0.00036306
-0.05457915 -0.04972380 0.00040044
-0.06459687 -0.05675150 -0.00032348
-0.05636783 -0.04799801 -0.00023160
-0.06059624 -0.05159817 -0.00074069
-0.05431523 -0.05173128 0.00066889
-0.06034836 -0.05276629 -0.00017061
-0.05081820 -0.04803958 0.00039911
-0.04969188 -0.03943166 -0.00030005
-0.04632765 -0.03759245 -0.00021722
-0.04283599 -0.04360367 0.00071247
-0.05872276 -0.05978626 0.00106307
-0.04248210 -0.03573664 0.00009238
-0.06238057 -0.05166654 -0.00109565
-0.05490235 -0.04654118 -0.00045593
-0.05150455 -0.04464811 0.00016470
-0.03962965 -0.02819445 -0.00003494
-0.04724318 -0.04203260 0.00044762
-0.06300444 -0.05564059 -0.00017238
-0.05940150 -0.05166753 -0.00018246
-0.04728021 -0.04759512 0.00077293
-0.05100798 -0.04670019 0.00021998
-0.04333085 -0.04226310 0.00070149
-0.05475174 -0.04877083 0.00023332
-0.05792474 -0.05856834 0.00100691
-0.04025136 -0.04594749 0.00054286
-0.05693952 -0.05560040 0.00065679
-0.05841490 -0.06066545 0.00115009
-0.05971722 -0.05314840 -0.00020871
-0.04707237 -0.03527093 -0.00045628
-0.04134267 -0.04683449 0.00059349
-0.05729327 -0.05545423 0.00059756
-0.05707742 -0.05463085 0.00050954
-0.05309594 -0.05154882 0.00075089
-0.05018062 -0.03859100 -0.00062299
-0.04423636 -0.04918405 0.00071897
-0.04506623 -0.04682502 0.00075366
-0.04231001 -0.03389404 0.00029400
-0.04993263 -0.05380116 0.00092881
-0.05572045 -0.05751050 0.00102976
-0.04979170 -0.04235297 0.00012857
-0.06110479 -0.05728663 0.00033606
-0.04795027 -0.05028800 0.00074252
-0.05350753 -0.04215105 -0.00078074
-0.05209859 -0.04645099 0.00003195
-0.06442932 -0.05416669 -0.00101326
-0.04424496 -0.03891293 0.00049265
-0.04092023 -0.04649120 0.00057411
-0.06387672 -0.05471424 -0.00066140
-0.03933135 -0.04336971 0.00048083
-0.06545471 -0.05496630 -0.00116870
-0.04987463 -0.04532668 0.00019461
-0.05734198 -0.05224705 0.00008847
-0.04601017 -0.05062281 0.00078960
-0.04371478 -0.03707006 0.00039953
-0.05099455 -0.05361534 0.00087467
-0.05544270 -0.05401963 0.00061650
-0.04741631 -0.04802752 0.00078275
-0.03999945 -0.03803178 0.00040500
-0.05278424 -0.05039298 0.00067852
-0.04280258 -0.03078483 -0.00022064
-0.05775670 -0.05713873 0.00076761
-0.05932493 -0.05277580 0.00006530
-0.05807397 -0.05516482 0.00065611
-0.05894932 -0.05426624 0.00040460
-0.05129315 -0.04585815 0.00007004
-0.04883942 -0.05266596 0.00087176
-0.03838555 -0.03268835 0.00061408
-0.04301209 -0.04051223 0.00038674
-0.04839389 -0.05031526 0.00083335
-0.04237592 -0.03488122 0.00037212
-0.05216085 -0.05560516 0.00099749
-0.05744983 -0.05653337 0.00086300
-0.04730099 -0.05094755 0.00083032
-0.04082748 -0.04577000 0.00058902
-0.04444016 -0.04188709 0.00038681
-0.03640745 -0.04132112 0.00036037
-0.05391426 -0.05559766 0.00090309
-0.04976195 -0.05277648 0.00085462
-0.06151195 -0.05693039 0.00019309
-0.04778379 -0.03603026 -0.00049607
-0.04181253 -0.03460643 0.00007722
-0.03473986 -0.03488277 0.00064948
-0.05965450 -0.04999545 -0.00084309
-0.04114974 -0.04520532 0.00055209
-0.04342897 -0.04323464 0.00050588
-0.06291383 -0.05248276 -0.00109835
-0.06038750 -0.05557155 0.00037921
-0.03818712 -0.03950622 0.00063803
-0.05464630 -0.05263601 0.00053121
-0.04537097 -0.03913310 0.00039024
-0.03848486 -0.03498089 0.00035395
-0.05887888 -0.05699883 0.00062162
-0.05055217 -0.03898829 -0.00064168
-0.06285888 -0.05360587 -0.00086114
-0.05845583 -0.06069856 0.00115089
-0.05716900 -0.05247679 0.00040897
-0.05980793 -0.05060178 -0.00053312
-0.05255402 -0.04507044 -0.00025162
-0.05156658 -0.04525180 0.00023999
-0.06397372 -0.05413045 -0.00102410
-0.05193060 -0.04383666 -0.00003769
-0.04282713 -0.04804021 0.00065945
-0.03832494 -0.04438039 0.00044909
-0.04281392 -0.03073398 -0.00019792
-0.05103429 -0.04510203 0.00030136
-0.06116767 -0.05574762 0.00026673
-0.04760570 -0.05191614 0.00084905
-0.05120488 -0.04138909 -0.00029941
-0.03540687 -0.03612908 0.00039668
-0.05366605 -0.05618898 0.00097412
-0.05126202 -0.05487756 0.00097069
-0.03563743 -0.04219099 0.00030888
-0.05332059 -0.05083629 0.00045599
-0.05803681 -0.05954276 0.00103746
-0.04818955 -0.05238923 0.00086983
-0.05564011 -0.05244745 0.00038612
-0.04198215 -0.04104620 0.00069734
-0.04191643 -0.02977978 -0.00013910
-0.04094098 -0.03095728 0.00021915
-0.05085392 -0.04819641 0.00041252
-0.05292403 -0.04687250 -0.00003763
-0.06349053 -0.05698995 -0.00022489
-0.03733187 -0.03688415 0.00067741
-0.05415072 -0.04283994 -0.00080875
-0.05882038 -0.06099347 0.00115794
-0.05824909 -0.04757195 -0.00095707
-0.06287106 -0.05415274 -0.00050995
-0.05195007 -0.05543455 0.00099132
-0.03763476 -0.03259945 0.00065655
-0.04048647 -0.04613863 0.00055392
-0.05269528 -0.05141587 0.00058236
-0.04409951 -0.04907300 0.00071332
-0.06082882 -0.05537708 0.00026254
-0.04003317 -0.03041766 0.00030301
-0.05969454 -0.04912093 -0.00088406
-0.05473767 -0.05242931 0.00069872
-0.04973380 -0.04920660 0.00077628
-0.05757716 -0.04992973 -0.00039205
-0.05396639 -0.05324172 0.00082346
-0.04915546 -0.04392272 0.00041513
-0.06101220 -0.05716797 0.00054091
-0.04410305 -0.04907587 0.00071347
-0.03280240 -0.03780789 0.00031017
-0.03739558 -0.04034388 0.00041777
-0.05236828 -0.04093131 -0.00072914
-0.05968543 -0.05583188 0.00031637
-0.06203830 -0.05825565 0.00055585
-0.05826206 -0.05831359 0.00096516
-0.05800652 -0.04928087 -0.00035966
-0.03904377 -0.04029634 0.00065186
-0.04669913 -0.03787670 0.00005691
-0.06288225 -0.05417407 -0.00050762
-0.04620298 -0.03670503 -0.00000771
-0.05670522 -0.05072208 0.00020566
-0.03427971 -0.04108337 0.00023389
-0.05329640 -0.05612771 0.00098818
-0.04184127 -0.03200025 -0.00010488
-0.03924672 -0.03817970 0.00042796
-0.04196554 -0.04734051 0.00062157
-0.04328564 -0.03870341 0.00024528
-0.06246443 -0.05538170 -0.00035164
-0.03982398 -0.03939033 0.00068779
-0.05997353 -0.05789538 0.00061309
-0.05177170 -0.04029285 -0.00070112
-0.05743752 -0.05282672 0.00017278
-0.04820438 -0.04361192 0.00019941
-0.05529162 -0.05626514 0.00096485
-0.05648774 -0.04857572 -0.00041780
-0.05193209 -0.04935636 0.00043096
-0.04312185 -0.04827949 0.00067214
-0.05732400 -0.05251378 0.00039030
-0.03968515 -0.04548707 0.00051589
-0.05516246 -0.05532557 0.00078977
-0.05649188 -0.04547601 -0.00084112
-0.06046379 -0.05365498 -0.00026736
-0.05592135 -0.05104558 0.00012816
-0.06241519 -0.05567808 -0.00027158
-0.03862636 -0.02967158 0.00009925
-0.05365960 -0.05515590 0.00095364
-0.04655788 -0.03558534 -0.00023697
-0.06048738 -0.05360273 -0.00002147
-0.05174477 -0.04240451 -0.00024063
-0.04194057 -0.04061773 0.00069241
-0.03521257 -0.03969653 0.00032067
-0.05042378 -0.03885100 -0.00063525
-0.06094167 -0.05945589 0.00086130
-0.05446146 -0.05746699 0.00106050
-0.06047286 -0.04971027 -0.00098778
-0.05202754 -0.05056193 0.00074638
-0.04961787 -0.05014747 0.00081922
-0.04259535 -0.03414793 0.00027846
-0.06043977 -0.04995062 -0.00089643
-0.05075134 -0.04922757 0.00052666
-0.05467984 -0.05605023 0.00089936
-0.05742598 -0.05986543 0.00112989
-0.05837893 -0.05500336 0.00038478
-0.04042880 -0.03855666 0.00040975
-0.05840913 -0.05359621 0.00013856
-0.04929616 -0.04428892 0.00043711
-0.04510757 -0.03317579 -0.00034135
-0.04227708 -0.03431732 0.00033612
-0.04163087 -0.03531681 0.00048690
-0.05927500 -0.05548732 0.00032434
-0.04015482 -0.03891020 0.00042964
-0.04029556 -0.03507095 0.00024714
-0.03243001 -0.03624332 0.00039298
-0.04251032 -0.04141337 0.00045522
-0.04081481 -0.04282868 0.00066370
-0.04065375 -0.02908146 -0.00010072
-0.05876699 -0.04920734 -0.00057880
-0.04509049 -0.04884342 0.00075580
-0.03537549 -0.04022316 0.00040298
-0.03758993 -0.04378199 0.00041183
-0.03429922 -0.03645061 0.00035039
-0.04158611 -0.03348831 0.00002100
-0.04144166 -0.03755585 0.00062425
-0.05203208 -0.05111829 0.00060702
-0.03263033 -0.03754680 0.00031181
-0.04345763 -0.03371279 0.00010362
-0.04230435 -0.04271045 0.00070591
-0.04859934 -0.04898604 0.00079631
-0.04348485 -0.03292756 0.00000794
-0.06037087 -0.05335151 -0.00031131
-0.06449834 -0.05393974 -0.00114796
-0.05674006 -0.04568233 -0.00087157
-0.05263321 -0.05463136 0.00095025
-0.05841386 -0.05789081 0.00079683
-0.03637123 -0.03997405 0.00050363
-0.03853414 -0.03061039 0.00015075
-0.06224622 -0.05264319 -0.00091811
-0.04464213 -0.04951327 0.00073555
-0.05378540 -0.04964951 0.00049771
-0.03919653 -0.04159757 0.00062065
-0.05538429 -0.04766579 -0.00035702
-0.04727993 -0.05165213 0.00083722
-0.03487893 -0.03922753 0.00041916
-0.04303414 -0.03412574 -0.00009761
-0.03757571 -0.03420179 0.00069078
-0.05558914 -0.04438121 -0.00086847
-0.05864197 -0.05328898 0.00003875
-0.05335467 -0.04575253 -0.00000013
-0.04389578 -0.03866879 0.00018580
-0.03821986 -0.04429486 0.00044381
-0.05950037 -0.05603670 0.00059080
-0.06188066 -0.05161756 -0.00089769
-0.04373828 -0.03915954 0.00024049
-0.03566022 -0.03574405 0.00065590
-0.05754663 -0.05413888 0.00058966
-0.05315472 -0.04487023 -0.00011070
-0.05824207 -0.04827746 -0.00084721
-0.05479578 -0.05614191 0.00090092
-0.03977424 -0.04235169 0.00062750
-0.06134216 -0.05598069 0.00003417
-0.05087398 -0.03933246 -0.00065764
-0.04789579 -0.05156136 0.00081890
-0.06070437 -0.06097138 0.00097083
-0.03889661 -0.04198336 0.00046342
-0.05614330 -0.05713403 0.00090925
-0.04553817 -0.03772714 0.00022429
-0.04726399 -0.04616774 0.00051248
-0.05978527 -0.06177407 0.00117563
-0.05095381 -0.04957168 0.00054324
-0.04061738 -0.03271324 0.00040937
-0.05133311 -0.04803507 0.00059302
-0.03953026 -0.03373038 0.00057727
-0.04133425 -0.02916122 -0.00010014
-0.04554314 -0.03855790 0.00031211
-0.05471092 -0.04344010 -0.00083249
-0.03910276 -0.04178423 0.00060927
-0.03966440 -0.03939420 0.00068555
-0.04368300 -0.03798306 0.00047698
-0.05554497 -0.04804978 -0.00003989
-0.04861431 -0.04708005 0.00049662
-0.03609324 -0.03282868 0.00038230
-0.04294132 -0.04185698 0.00046019
-0.04232397 -0.03405593 0.00030680
-0.06172860 -0.05103281 -0.00103401
-0.03859867 -0.04261802 0.00054538
-0.04390090 -0.03223097 -0.00030107
-0.04527779 -0.04593848 0.00057965
-0.03591531 -0.03885648 0.00037482
-0.03797837 -0.03504923 0.00037657
-0.03167466 -0.03895498 0.00008222
-0.05037050 -0.05352932 0.00092468
-0.03493597 -0.03790212 0.00034677
-0.05317364 -0.04440053 -0.00046921
-0.04360942 -0.03611037 -0.00000336
-0.04315097 -0.03817221 0.00053889
-0.04361537 -0.04358047 0.00051569
-0.03901004 -0.03622784 0.00068167
-0.04315576 -0.04525949 0.00057894
-0.04038220 -0.04605386 0.00054903
-0.06536850 -0.05519048 -0.00113650
-0.04140952 -0.03506372 0.00049135
-0.05027976 -0.03869700 -0.00062800
-0.04626233 -0.04123853 0.00048059
-0.04691949 -0.04487613 0.00043777
-0.05146617 -0.05504283 0.00097689
-0.05791459 -0.04924834 -0.00034361
-0.05915014 -0.06038425 0.00109008
-0.05632264 -0.05897283 0.00110562
-0.06085622 -0.05981952 0.00078930
-0.04868825 -0.04447452 0.00023822
-0.04155739 -0.03263738 0.00028349
-0.03943615 -0.03625530 0.00067058
-0.05678044 -0.05892225 0.00108767
-0.03240943 -0.03862711 0.00015203
-0.05800656 -0.05772392 0.00093043
-0.03593912 -0.03974673 0.00048113
-0.05659518 -0.05919331 0.00111179
-0.05622568 -0.04701591 -0.00064357
-0.04028923 -0.02805173 -0.00002863
-0.06053083 -0.05494534 -0.00001116
-0.05841211 -0.05620818 0.00074355
-0.04400424 -0.03675381 0.00000631
-0.05399757 -0.05335953 0.00067565
-0.05337098 -0.04938338 0.00051670
-0.04187335 -0.03439154 0.00039203
-0.04992586 -0.04859456 0.00073571
-0.06015453 -0.05586556 0.00046754
-0.04371324 -0.04158920 0.00041126
-0.04467677 -0.03704522 -0.00004958
-0.06008909 -0.05747604 0.00053088
-0.03514785 -0.03803590 0.00035439
-0.05853488 -0.05247255 0.00016877
-0.05240931 -0.04097523 -0.00073104
-0.06377228 -0.05548550 -0.00065857
-0.06136027 -0.05871562 0.00072030
-0.05797526 -0.05623053 0.00078897
-0.03897558 -0.03196330 0.00053212
-0.04545197 -0.03354282 -0.00036202
-0.04151467 -0.04495495 0.00064871
-0.03803545 -0.03998110 0.00043996
-0.03176599 -0.03790768 0.00018274
-0.05506664 -0.04382126 -0.00084724
-0.04085756 -0.02865498 -0.00006777
-0.05985849 -0.05617165 0.00056006
-0.04335693 -0.03517865 0.00027149
-0.04141804 -0.04594810 0.00062058
-0.05469552 -0.05019882 0.00018919
-0.04435646 -0.04017837 0.00057089
-0.04193997 -0.04318417 0.00069602
-0.04005881 -0.06367137 -0.00076572
-0.01744088 -0.04583092 0.00002592
-0.03816408 -0.06629569 0.00028095
-0.02402764 -0.04579400 0.00041558
-0.03878770 -0.06508143 -0.00027493
-0.03430126 -0.06418815 0.00070860
-0.03401885 -0.06356027 0.00048906
-0.02099987 -0.04922299 0.00037838
-0.03796237 -0.06728297 0.00041832
-0.03764363 -0.06680547 0.00018293
-0.02500706 -0.04843727 0.00043658
-0.02937477 -0.03901127 0.00006817
-0.04015266 -0.07459135 0.00071073
-0.03698365 -0.05474046 -0.00071612
-0.02275334 -0.04463104 0.00065844
-0.03554597 -0.06564795 0.00066195
-0.03676573 -0.07248498 0.00085858
-0.02904744 -0.04341501 0.00032506
-0.03007377 -0.05096385 0.00018350
-0.03362594 -0.06903175 0.00096760
-0.02270443 -0.05400415 0.00044691
-0.03404308 -0.04940329 -0.00049917
-0.04204516 -0.07038898 -0.00024842
-0.02754431 -0.04628853 0.00025730
-0.03916265 -0.05940586 -0.00086904
-0.03756793 -0.05649091 -0.00065726
-0.03238524 -0.05217397 -0.00008358
-0.03630528 -0.06957875 0.00067054
-0.02206398 -0.04293069 0.00039465
-0.03628971 -0.06411179 0.00044104
-0.03574156 -0.06077888 -0.00003011
-0.02946012 -0.05291061 0.00062885
-0.03090639 -0.06478675 0.00087899
-0.03561120 -0.07163892 0.00099319
-0.03484997 -0.06723960 0.00066287
-0.03165437 -0.06213640 0.00079378
-0.03909859 -0.07291279 0.00055000
-0.03467929 -0.05263352 -0.00021846
-0.04243837 -0.07331852 -0.00019902
-0.04072523 -0.06990705 -0.00018637
-0.03493419 -0.06558277 0.00072480
-0.02973705 -0.04880102 0.00045111
-0.02949653 -0.06173645 0.00072124
-0.02108306 -0.04587784 0.00049724
-0.03248225 -0.05311587 -0.00003901
-0.03336981 -0.06145015 0.00065331
-0.03733987 -0.06462971 0.00001688
-0.04256222 -0.06726629 -0.00104160
-0.04045538 -0.06727369 -0.00045403
-0.04413309 -0.07250767 -0.00064811
-0.02466073 -0.05593245 0.00054744
-0.02165085 -0.04813136 0.00034815
-0.03259026 -0.04579395 -0.00026160
-0.03649101 -0.07525799 0.00114100
-0.04545517 -0.07290970 -0.00117496
-0.02344996 -0.04449072 0.00040939
-0.02869482 -0.03982005 0.00024534
-0.02694721 -0.04135989 0.00053273
-0.03186150 -0.06813490 0.00097358
-0.02325772 -0.04657470 0.00064348
-0.03620658 -0.06499070 0.00027788
-0.02170214 -0.04469129 0.00059067
-0.03197463 -0.05091053 -0.00009270
-0.02379822 -0.05525059 0.00050897
-0.02740105 -0.04979740 0.00038215
-0.03353235 -0.05358160 -0.00019117
-0.02229652 -0.04650627 0.00058362
-0.02696188 -0.04698720 0.00032594
-0.03478786 -0.05126818 -0.00037186
-0.03173982 -0.06454956 0.00075668
-0.02757639 -0.04652007 0.00026198
-0.04501550 -0.07327597 -0.00086731
-0.03985715 -0.06684830 -0.00007293
-0.03698418 -0.06285029 0.00019334
-0.02689121 -0.05724466 0.00060407
-0.03436240 -0.05068816 -0.00050603
-0.03167566 -0.05020094 0.00023481
-0.03037844 -0.05729767 0.00047583
-0.03330358 -0.06098588 0.00039367
-0.03577533 -0.06691794 0.00051901
-0.03429641 -0.04938618 -0.00041967
-0.03441181 -0.05867227 0.00033503
-0.02541100 -0.05423678 0.00064816
-0.02917267 -0.05785181 0.00057360
-0.04049076 -0.06509073 -0.00049554
-0.03897211 -0.07446772 0.00086845
-0.02386782 -0.04728223 0.00065958
-0.04538358 -0.07275599 -0.00117262
-0.03410573 -0.07158862 0.00106299
-0.03681102 -0.06355758 0.00001928
-0.02570617 -0.05621269 0.00057178
-0.03489308 -0.05705860 -0.00018771
-0.02859948 -0.04814641 0.00022232
-0.03625371 -0.07418346 0.00109369
-0.02873538 -0.04786089 0.00052873
-0.03238197 -0.06351132 0.00080979
-0.04130387 -0.06951557 -0.00014184
-0.02717617 -0.05283934 0.00070326
-0.04283168 -0.06727675 -0.00107202
-0.02723441 -0.05111726 0.00068946
-0.03973026 -0.06834642 -0.00012291
-0.03706891 -0.05877867 -0.00024343
-0.03197664 -0.06282071 0.00080324
-0.03283327 -0.05330699 0.00022894
-0.03548627 -0.06839063 0.00083130
-0.02649048 -0.05754808 0.00068958
-0.04207298 -0.07139598 -0.00036829
-0.02580907 -0.04252920 0.00064989
-0.03392166 -0.05983766 0.00049355
-0.03890607 -0.07540304 0.00094547
-0.02727069 -0.06106089 0.00074212
-0.02523716 -0.04847262 0.00043414
-0.02813648 -0.06062902 0.00070826
-0.03316077 -0.06730823 0.00082576
-0.04080340 -0.06292390 -0.00096830
-0.03616943 -0.07476333 0.00113150
-0.02990508 -0.04584113 -0.00002955
-0.03815972 -0.07181751 0.00077039
-0.02475678 -0.05712261 0.00058257
-0.03811095 -0.06210025 -0.00043446
-0.02418676 -0.04416577 0.00070270
-0.03457784 -0.07068831 0.00100168
-0.03701818 -0.07259336 0.00083656
-0.03807553 -0.05707714 -0.00079574
-0.02611456 -0.05077175 0.00069129
-0.02746065 -0.05876873 0.00064813
-0.03352269 -0.07015989 0.00101959
-0.02701968 -0.06067360 0.00072758
-0.02414953 -0.04365464 0.00070618
-0.04056631 -0.06662035 -0.00056678
-0.02937178 -0.04549708 0.00002735
-0.03932450 -0.06166994 -0.00077716
-0.02762466 -0.05190844 0.00043631
-0.04164901 -0.06745744 -0.00054746
-0.03423887 -0.04887878 -0.00048963
-0.03443074 -0.04999334 -0.00039505
-0.03490899 -0.06420105 0.00064515
-0.03481885 -0.05011570 -0.00054061
-0.03509758 -0.06133418 0.00014389
-0.03579820 -0.07239737 0.00096128
-0.02600248 -0.04384778 0.00031299
-0.02986351 -0.06505807 0.00088088
-0.02861304 -0.06313101 0.00081657
-0.03032303 -0.05717536 0.00070372
-0.03091231 -0.06620391 0.00091903
-0.03628816 -0.07390323 0.00107502
-0.03409195 -0.05845719 0.00037319
-0.04532114 -0.07262193 -0.00117056
-0.03166275 -0.04488392 -0.00028947
-0.02775594 -0.04051467 0.00008512
-0.02923121 -0.05745918 0.00074278
-0.02042412 -0.05046926 0.00027514
-0.04351745 -0.06874907 -0.00110233
-0.03956626 -0.07022169 0.00038919
-0.03280051 -0.06384406 0.00080202
-0.04351357 -0.07244692 -0.00066573
-0.02371496 -0.04854572 0.00063065
-0.03157110 -0.05968743 0.00050089
-0.03710510 -0.06750144 0.00058409
-0.02440497 -0.04861922 0.00066239
-0.01866261 -0.04773251 0.00013134
-0.03171769 -0.06663183 0.00088016
-0.02575876 -0.05772696 0.00061423
-0.02997121 -0.05908271 0.00058577
-0.03589513 -0.07001139 0.00088701
-0.02969840 -0.04271812 -0.00009306
-0.03892524 -0.06763798 -0.00000907
-0.03107941 -0.05390137 0.00051992
-0.03831843 -0.05759728 -0.00081264
-0.04212609 -0.06849764 -0.00055757
-0.04213352 -0.06579067 -0.00102590
-0.03612772 -0.06601129 0.00061232
-0.03060608 -0.05930173 0.00055716
-0.04280158 -0.06755219 -0.00106994
-0.03278044 -0.06015082 0.00040139
-0.02551513 -0.05505460 0.00054325
-0.03844403 -0.06859173 0.00045057
-0.02374041 -0.05205919 0.00056785
-0.04068239 -0.07288715 0.00021398
-0.02071876 -0.04697213 0.00042058
-0.02530569 -0.05337415 0.00065004
-0.02517130 -0.05552518 0.00062446
-0.03257757 -0.05279214 0.00024003
-0.03116633 -0.06706462 0.00094273
-0.04283856 -0.06729153 -0.00107233
-0.04269212 -0.07398803 0.00007045
-0.02612367 -0.04287887 0.00028352
-0.03611200 -0.05866379 -0.00030425
-0.03527520 -0.07179963 0.00102096
-0.02877964 -0.05482878 0.00047653
-0.03962926 -0.07435171 0.00077073
-0.02413285 -0.05432611 0.00056454
-0.02885092 -0.05759827 0.00057712
-0.04000013 -0.07450727 0.00072766
-0.03353883 -0.04738710 -0.00042591
-0.02777218 -0.04464370 0.00052885
-0.03414173 -0.04867170 -0.00048093
-0.03334677 -0.06777240 0.00092707
-0.02700230 -0.06064678 0.00072657
-0.03376333 -0.06925626 0.00091089
-0.03687153 -0.07404113 0.00098160
-0.03685015 -0.06133955 0.00007512
-0.02957932 -0.04289541 0.00021769
-0.04216109 -0.06689270 -0.00082282
-0.03892074 -0.07667611 0.00095973
-0.03538299 -0.07081483 0.00087729
-0.04291497 -0.07125350 -0.00040797
-0.04481231 -0.07318741 -0.00098080
-0.03480870 -0.06580349 0.00074913
-0.02655374 -0.05995453 0.00070007
-0.04037501 -0.06229555 -0.00086589
-0.02572505 -0.04263785 0.00065624
-0.04252523 -0.07123852 -0.00052898
-0.03644082 -0.06282447 0.00030279
-0.04062787 -0.07258191 0.00041707
-0.02736787 -0.05841800 0.00063730
-0.03644677 -0.07347764 0.00103973
-0.02584709 -0.05506636 0.00066500
-0.03516096 -0.05840502 0.00017222
-0.04319432 -0.06805531 -0.00108834
-0.02228094 -0.05334828 0.00041623
-0.04338675 -0.07259347 -0.00036066
-0.03127456 -0.05214949 0.00040762
-0.03648131 -0.07273346 0.00091364
-0.03603708 -0.05903002 -0.00025471
-0.03255442 -0.06291777 0.00060202
-0.04107738 -0.06393196 -0.00088024
-0.04108336 -0.07484398 0.00036730
-0.03239995 -0.06350113 0.00065014
-0.03744620 -0.05915799 -0.00056081
-0.04041909 -0.06660837 -0.00026733
-0.04073550 -0.07230127 0.00036139
-0.03081900 -0.04216697 -0.00007617
-0.02277248 -0.05410951 0.00045178
-0.02840526 -0.04994736 0.00061855
-0.03559844 -0.06423921 0.00055878
-0.04016627 -0.06852466 0.00005107
-0.02779343 -0.05276187 0.00045527
-0.03600746 -0.06411443 0.00023171
-0.03745782 -0.07372135 0.00097543
-0.02114951 -0.04785216 0.00031901
-0.03971546 -0.06545664 -0.00047362
-0.02782986 -0.06147717 0.00077013
-0.03561414 -0.07145330 0.00090377
-0.03017281 -0.06330013 0.00077024
-0.03905608 -0.07122244 0.00037462
-0.03301365 -0.06149553 0.00046431
-0.04168341 -0.06481207 -0.00101588
-0.03280199 -0.06755467 0.00086839
-0.02170260 -0.04316610 0.00063602
-0.02144071 -0.04394989 0.00059358
-0.02869526 -0.06325775 0.00082095
-0.02342770 -0.04545924 0.00041301
-0.03547370 -0.06026467 0.00026789
-0.03187842 -0.05760935 0.00060925
-0.02633671 -0.05961951 0.00068702
-0.03412875 -0.06774439 0.00089153
-0.02874079 -0.04883005 0.00055968
-0.02325821 -0.04307505 0.00040485
-0.04176649 -0.06896953 -0.00061263
-0.02715094 -0.04721809 0.00063831
-0.03092532 -0.04183250 -0.00016696
-0.03484458 -0.05687655 0.00010831
-0.02811793 -0.04650882 0.00054755
-0.03825328 -0.05745776 -0.00080814
-0.03089453 -0.04843843 0.00026664
-0.03250311 -0.04534969 -0.00028420
-0.02439134 -0.05370901 0.00049661
-0.02759129 -0.04267942 0.00014620
-0.02241696 -0.04469995 0.00039588
-0.03424441 -0.06959680 0.00089435
-0.03250204 -0.06608385 0.00079661
-0.03126214 -0.04254699 -0.00020217
-0.03782201 -0.07044390 0.00052174
-0.02964797 -0.05239582 0.00030251
-0.03920545 -0.07048246 0.00025961
-0.02997387 -0.05999431 0.00077954
-0.02072403 -0.04929890 0.00028693
-0.02832121 -0.04342983 0.00008700
-0.03573818 -0.06106275 0.00028482
-0.03691658 -0.06813028 0.00045085
-0.03060637 -0.04228208 -0.00001498
-0.04041546 -0.06334307 -0.00088672
-0.03300428 -0.06989379 0.00102105
-0.03266705 -0.05298548 0.00023700
-0.03482393 -0.05679555 0.00010583
-0.02656952 -0.05480664 0.00054216
-0.03115351 -0.06686050 0.00093878
-0.03422799 -0.05797019 0.00031444
-0.03059582 -0.04907574 0.00034653
-0.04181407 -0.07473637 0.00017587
-0.04011776 -0.06717955 -0.00010433
-0.04012765 -0.06560844 -0.00056759
-0.03070648 -0.05720188 0.00044341
-0.03751660 -0.05986962 -0.00051235
-0.03405105 -0.06449478 0.00055309
-0.02912510 -0.06280703 0.00082338
-0.04421808 -0.07025342 -0.00113081
-0.01990469 -0.04385765 0.00045030
-0.03665524 -0.06402620 0.00009878
-0.02125440 -0.04934651 0.00032181
-0.02680084 -0.05403224 0.00052128
-0.03333909 -0.05805954 0.00017364
-0.04269716 -0.06753349 -0.00104910
-0.03292526 -0.05995923 0.00037027
-0.02160889 -0.04849715 0.00046465
-0.03688124 -0.07585825 0.00115210
-0.04174455 -0.07178183 -0.00021671
-0.04155591 -0.06471947 -0.00102057
-0.02556969 -0.05050061 0.00068233
-0.02058696 -0.05072197 0.00028794
-0.02155753 -0.05094092 0.00039287
-0.03383251 -0.04801270 -0.00045293
-0.04210182 -0.06828209 -0.00058192
-0.03387163 -0.04809606 -0.00045650
-0.03481899 -0.07095633 0.00094408
-0.02341880 -0.04704994 0.00041827
-0.02359017 -0.04719704 0.00042169
-0.02779734 -0.05271592 0.00069691
-0.03701920 -0.07089089 0.00083763
-0.03185682 -0.06508490 0.00087604
-0.04337220 -0.06849222 -0.00106735
-0.01873220 -0.04784073 0.00013721
-0.03703446 -0.06941588 0.00073685
-0.02878972 -0.04392700 0.00004696
-0.04087601 -0.06580395 -0.00075104
-0.02397156 -0.04737909 0.00042703
-0.03983616 -0.07125456 0.00044156
-0.02417212 -0.05627520 0.00054888
-0.04137001 -0.07128209 0.00007638
-0.04037053 -0.07088406 0.00028264
-0.02505258 -0.05663485 0.00057325
-0.02196477 -0.04976763 0.00036407
-0.03680008 -0.05434786 -0.00070215
-0.03054047 -0.05801792 0.00071759
-0.01870867 -0.04537881 0.00023311
-0.03701750 -0.05644403 -0.00048234
-0.02719349 -0.05785886 0.00062086
-0.02045896 -0.04969943 0.00030277
-0.03397374 -0.04901782 -0.00049722
-0.03960816 -0.07408728 0.00058264
-0.03084903 -0.06529061 0.00089272
-0.02863349 -0.06193605 0.00075441
-0.03268507 -0.06317917 0.00078277
-0.03755857 -0.06479142 0.00025978
-0.03060872 -0.04371793 0.00006676
-0.03303718 -0.06475455 0.00067319
-0.03475889 -0.06785238 0.00085854
-0.02615457 -0.05332343 0.00068611
-0.02984035 -0.04635099 -0.00000116
-0.03890538 -0.06545194 0.00001417
-0.02971631 -0.05607952 0.00046841
-0.03553761 -0.06745176 0.00059563
-0.03108397 -0.05673021 0.00064085
-0.02871872 -0.05104924 0.00062619
-0.02350984 -0.04290104 0.00040180
-0.03434720 -0.04910973 -0.00049928
-0.03460417 -0.07235547 0.00108074
-0.03566458 -0.05192107 -0.00061195
-0.03010535 -0.04859751 0.00006191
-0.02607915 -0.04876357 0.00068894
-0.04023952 -0.07327637 0.00036326
-0.03502572 -0.05055712 -0.00055839
-0.03396835 -0.06158840 0.00034772
-0.02577310 -0.05763414 0.00065287
-0.03459448 -0.06554905 0.00056603
-0.03113351 -0.05542183 0.00058286
-0.02886494 -0.03992506 -0.00003161
-0.03969737 -0.06703909 -0.00027666
-0.03473328 -0.05524933 -0.00029970
-0.02397243 -0.05418226 0.00049234
-0.02815281 -0.06242144 0.00079167
-0.03778676 -0.07268463 0.00074070
-0.03069099 -0.04721340 -0.00008350
-0.02212379 -0.05310483 0.00040471
-0.03793784 -0.07124206 0.00075581
-0.01809388 -0.04684765 0.00008285
-0.03674618 -0.07117461 0.00088189
-0.03241382 -0.05980103 0.00042154
-0.02854498 -0.04131219 0.00001381
-0.02575736 -0.04222947 0.00029747
-0.03510850 -0.05161399 -0.00043091
-0.02356961 -0.04716467 0.00064804
-0.03019070 -0.04195935 0.00005767
-0.02981514 -0.06227990 0.00082198
-0.02551873 -0.04371171 0.00067637
-0.03636982 -0.07145338 0.00093029
-0.03868547 -0.06742712 0.00028460
-0.04405267 -0.07316033 -0.00050698
-0.03523414 -0.05552137 -0.00009745
-0.03310917 -0.05006682 -0.00032872
-0.02605239 -0.04705068 0.00038162
-0.03158262 -0.04447861 -0.00028440
-0.03862092 -0.06182287 -0.00033566
-0.04345933 -0.06905958 -0.00098480
-0.03640711 -0.06522027 0.00026342
