ply
format ascii 1.0
element vertex 706
property float x
property float y
property float z
property float nx
property float ny
property float nz
end_header
0.02362228 0.07738274 -0.00126157 -0.00463473 -0.01426424 0.99988752
0.01598775 0.06315031 0.00031486 0.30901699 0.95105652 0.00000000
0.03482944 0.09908676 -0.00054293 0.30901699 0.95105652 -0.00000000
0.02084911 0.08339896 -0.00010801 0.92528154 -0.37928100 0.00000000
0.02112665 0.08407603 -0.00078705 0.93666254 -0.33924918 0.08702461
0.02869258 0.07198152 0.00131513 0.01659452 0.01041474 0.99980806
0.02874138 0.08481564 0.00113181 0.00463473 0.01426424 0.99988752
0.03356025 0.09949915 -0.00111741 0.30901699 0.95105652 -0.00000000
0.02943466 0.09114431 0.00103831 0.00463473 0.01426424 0.99988752
0.03198719 0.08022303 0.00118228 0.77358994 -0.21376443 0.59654285
0.02849338 0.07126092 -0.00132633 -0.05580893 0.02993823 0.99799252
0.02848565 0.06530278 -0.00141136 0.68477766 0.02738545 -0.72823732
0.02406904 0.08996279 -0.00108004 0.37316934 -0.07125526 0.92502288
0.03471425 0.09912419 0.00036805 0.30901699 0.95105652 0.00000000
0.01747343 0.06266758 0.00070602 0.30901699 0.95105652 0.00000000
0.01910526 0.06213737 -0.00065156 -0.30901699 -0.95105652 -0.00000000
0.01737623 0.06269917 -0.00013578 -0.30901699 -0.95105652 0.00000000
0.02430185 0.09182214 -0.00030293 0.92528154 -0.37928100 0.00000000
0.03158217 0.07738466 0.00048877 0.97150427 -0.23702207 -0.00000000
0.03312852 0.09963942 0.00018060 -0.30901699 -0.95105652 0.00000000
0.01339548 0.06521532 0.00138630 0.89250292 -0.35197772 -0.28204650
0.02863098 0.06995253 0.00134436 0.16522207 -0.06996660 0.98377149
0.03766650 0.09816495 -0.00006197 0.30901699 0.95105652 -0.00000000
0.01787074 0.07613302 0.00050636 0.92528154 -0.37928100 0.00000000
0.03616482 0.09865287 -0.00027670 -0.30901699 -0.95105652 0.00000000
0.03360535 0.08637983 0.00108695 0.84507569 -0.33742931 0.41471502
0.02127127 0.06250710 0.00148469 0.00504429 -0.28096624 0.95970439
0.03437325 0.09923499 0.00085004 -0.29495522 -0.95506277 -0.02926630
0.02420635 0.06047993 0.00021775 0.30901699 0.95105652 -0.00000000
0.03803611 0.09804485 -0.00007423 -0.30901699 -0.95105652 0.00000000
0.02854399 0.06493177 -0.00037419 0.97150427 -0.23702207 -0.00000000
0.02479198 0.09134130 -0.00105702 0.41351623 -0.11416376 0.90331111
0.02665215 0.09755586 0.00086038 0.90429643 -0.31365809 -0.28959725
0.01642308 0.06300886 -0.00052279 0.30901699 0.95105652 0.00000000
0.02771149 0.09492435 0.00099237 0.00463473 0.01426424 0.99988752
0.03175045 0.10003104 0.00090080 -0.17524985 -0.97588353 -0.13014923
0.02055077 0.08267112 -0.00028449 0.92528154 -0.37928100 0.00000000
0.01624190 0.06306773 0.00013351 0.30901699 0.95105652 0.00000000
0.03163118 0.10012594 -0.00048016 -0.30901699 -0.95105652 0.00000000
0.03430829 0.08855845 -0.00064442 0.96779863 -0.24501371 -0.05774154
0.02461467 0.06034725 -0.00082206 0.30901699 0.95105652 -0.00000000
0.02087770 0.08346870 0.00116161 0.88422541 -0.33511463 -0.32533615
0.02905238 0.10096384 0.00086874 0.30901699 0.95105652 0.00000000
0.02979446 0.09948174 0.00091770 0.02305425 0.04504635 0.99871884
0.03057585 0.10046884 -0.00130667 0.27794298 0.96047087 0.01560167
0.03030271 0.07347099 -0.00128641 0.35166170 -0.15641203 -0.92296767
0.03456146 0.08959614 -0.00037010 0.97150427 -0.23702207 0.00000000
0.02517416 0.07450616 -0.00129542 -0.00463473 -0.01426424 0.99988752
0.02545994 0.08113447 -0.00119953 -0.00463473 -0.01426424 0.99988752
0.03387632 0.09939645 -0.00047568 -0.30901699 -0.95105652 -0.00000000
0.03411500 0.09931890 0.00109769 0.33489419 0.94225367 0.00197567
0.01997286 0.06185547 0.00046347 -0.30901699 -0.95105652 0.00000000
0.02015923 0.06179491 0.00098548 0.30901699 0.95105652 -0.00000000
0.01666387 0.07318878 0.00032970 0.92528154 -0.37928100 -0.00000000
0.01650247 0.06298307 0.00015304 -0.30901699 -0.95105652 0.00000000
0.03415026 0.09010677 0.00103126 -0.59003252 -0.02437940 -0.80701132
0.02742493 0.06034500 -0.00123982 0.97156888 -0.23640267 -0.01294969
0.02934790 0.07274539 -0.00130119 -0.19119801 0.04360670 0.98058237
0.03152142 0.10016160 -0.00047954 -0.30901699 -0.95105652 0.00000000
0.02751731 0.08132848 0.00118723 0.00463473 0.01426424 0.99988752
0.02054148 0.08264847 -0.00092597 0.90284799 -0.40001867 0.15764062
0.03168273 0.10010919 -0.00088276 0.30275478 0.95299766 -0.01161931
0.01301281 0.06428178 -0.00007363 0.92484203 0.36970496 0.08936136
0.02323468 0.06079564 0.00070415 -0.30901699 -0.95105652 -0.00000000
0.02185942 0.06124249 -0.00071678 0.30901699 0.95105652 0.00000000
0.01393371 0.06381771 0.00003859 0.30901699 0.95105652 0.00000000
0.02685078 0.10167919 -0.00031427 0.30901699 0.95105652 0.00000000
0.01357460 0.06393439 0.00011970 0.46738516 0.88378679 -0.02172632
0.03129882 0.07622328 -0.00109831 0.93227666 -0.29817828 -0.20481685
0.03208408 0.08370274 -0.00113219 -0.18704796 0.00086637 0.98235040
0.01481984 0.06869015 0.00014254 0.92528154 -0.37928100 -0.00000000
0.02295119 0.08852711 0.00081840 0.90671704 -0.39874871 -0.13734510
0.01851753 0.07771092 -0.00076960 0.89645732 -0.42920829 0.11020214
0.03199861 0.10000655 0.00069004 0.29013999 0.95689067 0.01338037
0.01677334 0.07345583 0.00067850 0.92528154 -0.37928100 0.00000000
0.03390172 0.09938820 0.00085811 0.30632240 0.94787410 0.08775694
0.02949183 0.10082106 0.00096683 0.30901699 0.95105652 0.00000000
0.01833434 0.06238786 0.00062813 -0.30901699 -0.95105652 -0.00000000
0.03186020 0.07852425 0.00102665 0.89818854 -0.27525360 0.34277223
0.02008588 0.06181875 -0.00047959 -0.30901699 -0.95105652 0.00000000
0.03584413 0.09875707 -0.00080407 0.31101768 0.94988987 -0.03126072
0.02041032 0.06171333 -0.00061682 0.30901699 0.95105652 -0.00000000
0.02983112 0.08497278 0.00112452 0.00463473 0.01426424 0.99988752
0.02077442 0.08321673 -0.00044439 0.92528154 -0.37928100 0.00000000
0.02597596 0.06280415 -0.00145864 -0.00463473 -0.01426424 0.99988752
0.02179366 0.08570324 -0.00029481 0.92528154 -0.37928100 0.00000000
0.02788293 0.06262413 0.00145237 0.95503158 -0.25166770 0.15677386
0.01688992 0.06285718 0.00073955 -0.30901699 -0.95105652 0.00000000
0.03342996 0.09954148 0.00039386 0.30901699 0.95105652 -0.00000000
0.01692344 0.06284629 0.00115487 -0.30901699 -0.95105652 -0.00000000
0.03433810 0.08868065 0.00048401 0.97150427 -0.23702207 0.00000000
0.03632450 0.09860099 -0.00067873 0.30901699 0.95105652 -0.00000000
0.03146343 0.07689797 0.00119373 0.85788164 -0.28258051 0.42917053
0.01892159 0.06284005 -0.00149083 0.32375506 0.82442974 0.46421791
0.02798893 0.10081701 -0.00011657 0.94952108 -0.31333439 -0.01520751
0.02679733 0.10169655 -0.00002367 0.30901699 0.95105652 0.00000000
0.02821214 0.06357160 0.00076501 0.97028168 -0.23132406 0.07101156
0.03192416 0.07878640 0.00060933 0.97184057 -0.23546412 0.00908583
0.02197110 0.07701612 0.00127446 0.00463473 0.01426424 0.99988752
0.03078026 0.08073371 0.00118059 0.04455708 -0.00506322 0.99899401
0.02565692 0.09512792 0.00089523 0.90214817 -0.20010820 -0.38221119
0.02872712 0.06568238 -0.00067008 0.97150427 -0.23702207 0.00000000
0.02385340 0.08749234 -0.00111628 0.10493022 -0.00833053 0.99444470
0.02739050 0.06020387 -0.00085964 0.97202118 -0.23462961 -0.01112522
0.03473039 0.09028854 -0.00013484 0.97150427 -0.23702207 -0.00000000
0.03639991 0.09857649 0.00030296 -0.32541655 -0.94553658 0.00803974
0.03317146 0.09962547 -0.00002076 0.30901699 0.95105652 -0.00000000
0.02879612 0.06627875 0.00139600 0.94690431 -0.15124969 0.28371774
0.02800164 0.10130525 -0.00022898 -0.38318797 -0.92349714 0.01788883
0.03586334 0.09493230 0.00018036 0.97150427 -0.23702207 -0.00000000
0.03356034 0.09949912 0.00115734 0.26536093 0.95902986 -0.09922351
0.02608409 0.08425561 0.00115212 0.00463473 0.01426424 0.99988752
0.02722612 0.09895610 0.00014032 0.92528154 -0.37928100 0.00000000
0.01939961 0.06204173 0.00091518 0.30901699 0.95105652 0.00000000
0.03330648 0.09202454 -0.00100781 -0.00463473 -0.01426424 0.99988752
0.02045142 0.06169998 -0.00085718 0.30901699 0.95105652 -0.00000000
0.02251332 0.06103002 -0.00039779 -0.30901699 -0.95105652 -0.00000000
0.03079564 0.07416083 0.00073589 0.97150427 -0.23702207 -0.00000000
0.02632091 0.07641060 -0.00126293 -0.00463473 -0.01426424 0.99988752
0.01902177 0.06216450 0.00054956 0.30901699 0.95105652 0.00000000
0.02484056 0.06027386 -0.00085556 0.30901699 0.95105652 -0.00000000
0.01655281 0.07291784 -0.00010840 0.92528154 -0.37928100 -0.00000000
0.03564592 0.09404113 0.00037798 0.97150427 -0.23702207 0.00000000
0.03464916 0.09000411 -0.00103041 0.65626867 -0.26566078 -0.70621228
0.02310541 0.08890334 0.00014182 0.92528154 -0.37928100 -0.00000000
0.02918815 0.06757208 0.00071446 0.97150427 -0.23702207 -0.00000000
0.01606916 0.07173794 0.00001001 0.92528154 -0.37928100 0.00000000
0.01919627 0.06210780 0.00026569 -0.30901699 -0.95105652 0.00000000
0.03226676 0.08019067 -0.00037067 0.97150427 -0.23702207 0.00000000
0.02965386 0.06948090 -0.00036333 0.97150427 -0.23702207 -0.00000000
0.01684413 0.06287205 -0.00089082 -0.30901699 -0.95105652 0.00000000
0.01847891 0.07761668 0.00126111 0.89347787 -0.41985375 -0.15943693
0.02540577 0.07813680 0.00124255 0.00463473 0.01426424 0.99988752
0.01531614 0.06557836 -0.00146847 0.03153505 -0.02460990 0.99919963
0.03026845 0.08225813 0.00116122 0.00463473 0.01426424 0.99988752
0.02672446 0.10172023 -0.00081365 -0.30901699 -0.95105652 0.00000000
0.01786018 0.06890003 -0.00140930 -0.00463473 -0.01426424 0.99988752
0.02861625 0.06522796 -0.00000335 0.97150427 -0.23702207 0.00000000
0.02521080 0.06015356 0.00007733 0.30901699 0.95105652 -0.00000000
0.02421149 0.08091413 -0.00120846 -0.00463473 -0.01426424 0.99988752
0.03136340 0.09331688 -0.00099838 -0.00463473 -0.01426424 0.99988752
0.03111312 0.10029427 0.00066153 0.30901699 0.95105652 -0.00000000
0.02552529 0.06005137 -0.00115455 0.24792444 0.95144027 0.18246887
0.03256247 0.09153341 0.00101826 0.00463473 0.01426424 0.99988752
0.03144230 0.07681137 -0.00080330 0.97160018 -0.22924669 -0.05864338
0.02070151 0.07315244 -0.00133546 -0.00463473 -0.01426424 0.99988752
0.02462751 0.07793446 0.00124904 0.00463473 0.01426424 0.99988752
0.03819314 0.09799383 0.00081204 0.30901699 0.95105652 0.00000000
0.02897541 0.08299235 0.00115674 0.00463473 0.01426424 0.99988752
0.02626494 0.10186954 -0.00095961 0.30901699 0.95105652 0.00000000
0.02420033 0.06048188 0.00013587 0.30901699 0.95105652 -0.00000000
0.02891104 0.07858814 -0.00121986 -0.00463473 -0.01426424 0.99988752
0.03237489 0.08063383 -0.00077701 0.97234843 -0.23280106 -0.01849879
0.02514810 0.06685095 0.00140475 0.00463473 0.01426424 0.99988752
0.03742525 0.09824333 -0.00034388 0.30901699 0.95105652 0.00000000
0.03413672 0.08785523 0.00089028 0.97063273 -0.21690535 0.10403933
0.02941036 0.09182839 -0.00102867 -0.00463473 -0.01426424 0.99988752
0.01858956 0.06546531 0.00145491 0.00463473 0.01426424 0.99988752
0.02801611 0.10088333 0.00055506 0.94837523 -0.31708062 0.00665579
0.03133696 0.07637958 -0.00038631 0.97150427 -0.23702207 0.00000000
0.02607540 0.08450843 0.00114855 0.00463473 0.01426424 0.99988752
0.03398797 0.09936017 0.00030335 -0.30901699 -0.95105652 0.00000000
0.01821750 0.07697897 0.00118355 0.88630141 -0.32912462 -0.32580178
0.03239863 0.08073116 0.00018689 0.97150427 -0.23702207 0.00000000
0.01487399 0.06351219 0.00072314 0.30901699 0.95105652 -0.00000000
0.01894654 0.06218894 -0.00101393 -0.30901699 -0.95105652 0.00000000
0.02302159 0.08869887 0.00035412 0.92528154 -0.37928100 -0.00000000
0.03146582 0.07690775 -0.00085996 0.96928351 -0.23971097 -0.05502851
0.02435511 0.06043159 0.00055008 -0.30901699 -0.95105652 0.00000000
0.01785314 0.06360240 -0.00148490 0.16594049 0.25680486 0.95211082
0.01520252 0.06340544 -0.00061730 -0.30901699 -0.95105652 -0.00000000
0.03227417 0.09991702 0.00020634 0.30901699 0.95105652 0.00000000
0.02813564 0.10126171 0.00032438 0.30051190 0.95250716 -0.04922102
0.02609172 0.06400239 -0.00144101 -0.00463473 -0.01426424 0.99988752
0.02790949 0.06233112 0.00113265 0.95526263 -0.27468966 0.10963075
0.02894254 0.06656534 0.00121433 0.97160862 -0.23477522 0.02927952
0.03472786 0.09911977 0.00086932 0.28778066 0.95699906 0.03653903
0.02422056 0.06784289 0.00139490 0.00463473 0.01426424 0.99988752
0.01491019 0.06350043 0.00085310 0.30901699 0.95105652 -0.00000000
0.03044881 0.07273923 0.00057608 0.97126988 -0.23767433 0.01207216
0.03002998 0.10062488 -0.00090030 -0.36418856 -0.92744447 0.08493204
0.03046953 0.10050338 -0.00063565 0.28747550 0.95445972 -0.07977767
0.02324326 0.07613646 -0.00128111 -0.00463473 -0.01426424 0.99988752
0.03428337 0.09052021 -0.00102474 -0.30815134 0.04207648 0.95040640
0.02951650 0.06891789 -0.00078816 0.97477025 -0.18136325 -0.13011662
0.02224745 0.06111641 -0.00024024 0.30901699 0.95105652 0.00000000
0.02102131 0.06321767 -0.00147571 0.05862949 0.09040338 0.99417796
0.02749151 0.10147100 -0.00133692 0.30901699 0.95105652 -0.00000000
0.02446459 0.09134834 0.00105844 -0.64110755 0.43099091 0.63500231
0.03005459 0.10063821 -0.00025055 -0.30901699 -0.95105652 -0.00000000
0.02548688 0.09471311 -0.00084891 0.82086875 -0.50740834 0.26212836
0.03413853 0.09931125 0.00056407 -0.30901699 -0.95105652 -0.00000000
0.01760109 0.07547519 -0.00126522 0.90567339 -0.41013262 0.10745675
0.02996806 0.07076877 0.00015881 0.97150427 -0.23702207 -0.00000000
0.01763795 0.07556512 0.00067651 0.92528154 -0.37928100 -0.00000000
0.02237081 0.08107298 0.00121473 0.00463473 0.01426424 0.99988752
0.02737062 0.06012240 0.00022080 0.97150427 -0.23702207 0.00000000
0.01395050 0.06426828 0.00149349 0.37421235 0.71982202 -0.58465492
0.02414260 0.09143365 -0.00055678 0.92600366 -0.35725650 0.12200418
0.03490308 0.09099637 0.00033210 0.97150427 -0.23702207 0.00000000
0.01605874 0.07171253 0.00079996 0.90927189 -0.41222162 -0.05742793
0.02964615 0.08369000 -0.00114367 -0.00463473 -0.01426424 0.99988752
0.02915840 0.06795587 0.00137040 0.70966055 -0.26724482 0.65189118
0.02965332 0.08959000 -0.00105947 -0.00463473 -0.01426424 0.99988752
0.02231611 0.07878042 0.00124769 0.00463473 0.01426424 0.99988752
0.02897178 0.09353537 0.00100635 0.00463473 0.01426424 0.99988752
0.03623728 0.09646498 0.00026819 0.97150427 -0.23702207 0.00000000
0.01802471 0.06248846 -0.00075622 0.30901699 0.95105652 -0.00000000
0.03449297 0.09501831 -0.00095960 -0.02203934 -0.00742513 0.99972953
0.01346728 0.06539047 -0.00122087 0.87024246 -0.30397834 0.38765349
0.03161807 0.07753181 0.00119165 0.97296814 -0.23033451 0.01670347
0.01672826 0.06290970 -0.00025883 -0.30901699 -0.95105652 0.00000000
0.01986567 0.07937875 0.00125051 -0.27971674 0.09248313 0.95561782
0.01774314 0.07582174 0.00027727 0.92528154 -0.37928100 0.00000000
0.02632990 0.09019664 0.00106622 0.00463473 0.01426424 0.99988752
0.02761766 0.08261650 0.00116839 0.00463473 0.01426424 0.99988752
0.01420705 0.06719520 -0.00142562 0.85462634 -0.39049796 0.34223554
0.02814235 0.10125953 0.00069209 0.32502608 0.94438160 0.05001440
0.02645574 0.09707669 0.00015736 0.92528154 -0.37928100 0.00000000
0.03057963 0.07327546 -0.00104871 0.97377727 -0.17617670 -0.14394304
0.01669878 0.07327395 0.00109815 0.91825028 -0.39009242 -0.06814938
0.03319423 0.08399217 0.00061359 0.97089274 -0.23895469 0.01636900
0.01554654 0.06511512 -0.00147402 0.01235370 0.02262657 0.99966766
0.02049915 0.08254521 -0.00012801 0.92528154 -0.37928100 0.00000000
0.01899749 0.06217238 0.00045151 -0.30901699 -0.95105652 0.00000000
0.02259094 0.07810937 -0.00125599 -0.00463473 -0.01426424 0.99988752
0.02774548 0.10022311 0.00028388 0.92528154 -0.37928100 -0.00000000
0.02313472 0.06082812 -0.00074614 0.30901699 0.95105652 -0.00000000
0.03609968 0.09590098 -0.00067191 0.96016174 -0.25895196 -0.10503956
0.02340249 0.06074112 -0.00036097 -0.30901699 -0.95105652 0.00000000
0.01753909 0.06264625 0.00109645 -0.31174650 -0.94939670 0.03821021
0.03323729 0.08566713 -0.00109882 0.57100189 -0.06112246 -0.81867019
0.03421117 0.09928765 -0.00001802 -0.30901699 -0.95105652 0.00000000
0.01378737 0.06617136 0.00025080 0.92528154 -0.37928100 -0.00000000
0.03024134 0.07188889 0.00033412 0.97150427 -0.23702207 0.00000000
0.03230154 0.08033320 -0.00029908 0.97150427 -0.23702207 0.00000000
0.02751279 0.08246015 0.00117111 0.00463473 0.01426424 0.99988752
0.03495888 0.09122509 0.00021879 0.97150427 -0.23702207 0.00000000
0.03280600 0.08240087 -0.00033422 0.97150427 -0.23702207 -0.00000000
0.02005054 0.08145079 -0.00052739 0.92384483 -0.38224446 0.01999745
0.03376714 0.08899971 -0.00104882 0.22156268 -0.01742189 -0.97499049
0.02537439 0.06010040 -0.00049934 0.30901699 0.95105652 -0.00000000
0.02639852 0.09693711 -0.00063217 0.92066466 -0.38934249 0.02808931
0.02672880 0.09774285 0.00064023 0.92169239 -0.38024548 -0.07678878
0.03515960 0.09897949 0.00070707 -0.30901699 -0.95105652 0.00000000
0.02241224 0.06106287 -0.00060681 -0.30901699 -0.95105652 -0.00000000
0.03403841 0.09934379 0.00075264 0.31889353 0.94761304 0.01834238
0.02399102 0.09106385 0.00087659 0.87517296 -0.39821735 -0.27476395
0.03304049 0.09966803 -0.00035794 -0.30901699 -0.95105652 0.00000000
0.02255415 0.08712274 0.00112758 0.88169191 -0.32224664 -0.34463964
0.03447149 0.08922737 -0.00076934 0.96479772 -0.24816938 -0.08704774
0.01361257 0.06392205 0.00031331 0.45357927 0.89115334 -0.01056285
0.02545096 0.09462547 0.00039073 0.92528154 -0.37928100 0.00000000
0.02961818 0.07177783 -0.00131374 -0.49696321 0.12178227 0.85918371
0.02912779 0.10093934 -0.00056390 0.29469514 0.95362859 -0.06121514
0.02259549 0.06654774 0.00142090 0.00463473 0.01426424 0.99988752
0.03043590 0.10051431 -0.00016158 0.30901699 0.95105652 0.00000000
0.01541126 0.06399679 0.00149060 -0.15779860 -0.39760761 0.90388483
0.01868397 0.06227425 -0.00075774 0.30901699 0.95105652 -0.00000000
0.01826662 0.06719505 0.00143174 0.00463473 0.01426424 0.99988752
0.02287626 0.06091210 0.00091039 0.30901699 0.95105652 0.00000000
0.02365611 0.06065871 -0.00073725 0.30901699 0.95105652 0.00000000
0.02698001 0.08506837 0.00113637 0.00463473 0.01426424 0.99988752
0.01588424 0.07128681 0.00004639 0.92528154 -0.37928100 0.00000000
0.03438616 0.08887763 0.00010858 0.97150427 -0.23702207 0.00000000
0.02224076 0.08679398 0.00026320 0.92528154 -0.37928100 0.00000000
0.02932204 0.06812084 0.00082803 0.95804021 -0.27004442 0.09609873
0.01942577 0.07881141 -0.00126065 0.29997162 -0.07839708 0.95072126
0.03119100 0.10026896 0.00050216 0.30901699 0.95105652 -0.00000000
0.02330424 0.08938840 -0.00013165 0.92528154 -0.37928100 -0.00000000
0.02956487 0.10079733 0.00020917 0.30901699 0.95105652 0.00000000
0.02215721 0.06114573 -0.00046159 0.30901699 0.95105652 -0.00000000
0.03444172 0.09921274 -0.00038864 0.30901699 0.95105652 -0.00000000
0.01701962 0.06281504 0.00031764 -0.30901699 -0.95105652 0.00000000
0.01526922 0.06338378 -0.00103326 -0.30901699 -0.95105652 0.00000000
0.02897540 0.10073760 -0.00090358 0.15552102 0.98339796 -0.09349684
0.03721782 0.09831073 0.00011914 0.30901699 0.95105652 0.00000000
0.03142487 0.07673992 -0.00077359 0.96881417 -0.24320950 -0.04741556
0.02698479 0.09836736 0.00082068 0.88030836 -0.42269823 -0.21536807
0.02767422 0.08065085 -0.00119617 -0.00463473 -0.01426424 0.99988752
0.02390935 0.06057643 -0.00083996 -0.30901699 -0.95105652 -0.00000000
0.02277290 0.06094568 0.00075840 -0.30901699 -0.95105652 -0.00000000
0.02881524 0.06604359 0.00095235 0.97228815 -0.23349824 0.01158966
0.02348752 0.06071349 -0.00029043 0.30901699 0.95105652 0.00000000
0.03024217 0.07189226 0.00124479 0.93701080 -0.19241886 0.29152316
0.02115437 0.06147157 0.00138779 0.21276683 0.86029241 -0.46327879
0.02455758 0.06036580 -0.00088091 -0.30901699 -0.95105652 0.00000000
0.02750574 0.09556735 -0.00098415 0.01320284 -0.02393172 0.99962641
0.02005166 0.07865430 -0.00125999 0.11427848 -0.05407388 0.99197603
0.02792320 0.10133074 -0.00031607 0.41164000 0.91074718 -0.03304674
0.03227050 0.09913939 0.00091111 -0.01980358 0.08436459 0.99623814
0.01455204 0.06361680 -0.00093879 0.30901699 0.95105652 -0.00000000
0.03062334 0.07345462 0.00100931 0.96173000 -0.25642273 0.09655464
0.02438500 0.06042188 0.00102268 0.30901699 0.95105652 -0.00000000
0.02942376 0.06853780 0.00097420 0.97011900 -0.19827636 0.13984139
0.03037962 0.09125532 0.00103235 0.00463473 0.01426424 0.99988752
0.03346157 0.08508792 0.00015305 0.97150427 -0.23702207 -0.00000000
0.02093489 0.06154289 0.00056445 -0.30901699 -0.95105652 -0.00000000
0.01942384 0.07992190 0.00047715 0.92528154 -0.37928100 -0.00000000
0.03355394 0.09950120 0.00000128 -0.30901699 -0.95105652 -0.00000000
0.03231663 0.09990322 -0.00086263 0.30901699 0.95105652 -0.00000000
0.01794969 0.07632562 0.00071392 0.92528154 -0.37928100 0.00000000
0.02903322 0.07625666 0.00125256 0.00463473 0.01426424 0.99988752
0.03015009 0.08131623 -0.00117520 -0.00463473 -0.01426424 0.99988752
0.03631234 0.09677265 0.00007334 0.97150427 -0.23702207 0.00000000
0.03607396 0.09579559 -0.00001805 0.97150427 -0.23702207 0.00000000
0.03479222 0.09853012 -0.00090811 0.84520775 -0.12600022 0.51937251
0.01720896 0.06344377 -0.00149015 -0.08575697 0.58867266 0.80380983
0.03062316 0.08855848 0.00106969 0.00463473 0.01426424 0.99988752
0.01606106 0.06312649 -0.00007225 -0.30901699 -0.95105652 0.00000000
0.03424779 0.08831050 -0.00057874 0.97451628 -0.21434643 -0.06613336
0.02749271 0.07692531 -0.00125016 -0.00463473 -0.01426424 0.99988752
0.03410999 0.08774568 -0.00098291 0.94346227 -0.18136761 -0.27746124
0.01791832 0.06252303 0.00078349 0.30901699 0.95105652 -0.00000000
0.02381885 0.09064382 -0.00020920 0.92528154 -0.37928100 0.00000000
0.01645339 0.06299901 -0.00088067 0.30901699 0.95105652 0.00000000
0.03456091 0.09257892 -0.00099408 0.25057286 -0.10274458 -0.96263014
0.02899299 0.08954426 0.00106319 0.00463473 0.01426424 0.99988752
0.02606434 0.06660638 0.00140399 0.00463473 0.01426424 0.99988752
0.02121092 0.06145320 -0.00009795 -0.30901699 -0.95105652 0.00000000
0.02924783 0.06781670 -0.00108993 0.95418482 -0.27320515 -0.12202570
0.03061862 0.07343525 0.00035542 0.97150427 -0.23702207 0.00000000
0.02547745 0.06006692 0.00072921 0.30901699 0.95105652 -0.00000000
0.02969959 0.08865808 0.00107255 0.00463473 0.01426424 0.99988752
0.03388604 0.08682775 0.00059321 0.96836066 -0.24605168 0.04166771
0.03003797 0.09903380 0.00092297 0.00689481 0.01926028 0.99979073
0.03817723 0.09799900 0.00008674 0.30901699 0.95105652 -0.00000000
0.02020219 0.08073796 0.00122956 -0.34472807 0.24287211 0.90673905
0.01850385 0.06233278 -0.00117062 0.30901699 0.95105652 -0.00000000
0.02007291 0.06182296 -0.00052754 -0.30901699 -0.95105652 0.00000000
0.03358803 0.09949012 0.00034823 0.30901699 0.95105652 -0.00000000
0.02615718 0.09634834 0.00001183 0.92528154 -0.37928100 -0.00000000
0.02133005 0.06141449 0.00049092 0.30901699 0.95105652 0.00000000
0.01777354 0.07589589 -0.00084317 0.90311464 -0.40340183 0.14714250
0.02420172 0.09157787 0.00073383 0.92157415 -0.38105999 -0.07412398
0.02609547 0.08227491 -0.00118032 -0.00463473 -0.01426424 0.99988752
0.01977914 0.07702915 0.00128443 0.10006786 -0.05818402 -0.99327793
0.03447587 0.09920165 -0.00122873 0.26522825 0.96393258 0.02208977
0.03693982 0.09840106 0.00102993 0.19931384 0.97415047 -0.10632434
0.03410074 0.09932353 -0.00015743 0.30901699 0.95105652 -0.00000000
0.01533270 0.06336315 -0.00061898 0.30901699 0.95105652 -0.00000000
0.03526499 0.09556423 0.00094823 0.36707259 -0.03122272 0.92966814
0.01709539 0.06279042 -0.00061134 0.30901699 0.95105652 0.00000000
0.02594710 0.09583583 -0.00002027 0.92528154 -0.37928100 -0.00000000
0.03028573 0.09078636 -0.00103947 -0.00463473 -0.01426424 0.99988752
0.02843876 0.07492877 0.00127426 0.00463473 0.01426424 0.99988752
0.02196754 0.06120736 -0.00036093 -0.30901699 -0.95105652 0.00000000
0.02271157 0.06516770 -0.00144005 -0.00463473 -0.01426424 0.99988752
0.02816308 0.09959686 -0.00092362 -0.66164084 0.15579769 -0.73345653
0.02677311 0.07330238 -0.00130518 -0.00463473 -0.01426424 0.99988752
0.02347936 0.08902633 0.00109613 0.45327336 -0.21922511 -0.86399283
0.02406383 0.09124147 -0.00079127 0.86215567 -0.36180962 0.35465674
0.01385840 0.06384218 -0.00126730 0.43617478 0.87796220 0.19731685
0.02350859 0.08988694 0.00096925 0.84903165 -0.33915559 -0.40511571
0.02730755 0.05986389 0.00036163 0.93854779 -0.34391251 -0.02919295
0.03695978 0.09839457 0.00010437 -0.25984158 -0.96561865 0.00793592
0.03470061 0.09912862 0.00092883 -0.29440006 -0.95504657 -0.03485195
0.02714487 0.09875788 0.00017203 0.92528154 -0.37928100 0.00000000
0.03100982 0.10032783 0.00014114 -0.30901699 -0.95105652 -0.00000000
0.01733382 0.07482316 -0.00079131 0.92462220 -0.38070372 0.01176743
0.03052992 0.08408109 -0.00113400 -0.00463473 -0.01426424 0.99988752
0.01512920 0.06342927 0.00035377 0.30901699 0.95105652 0.00000000
0.02903593 0.06694814 0.00105665 0.97111611 -0.23805430 0.01623732
0.03370621 0.09945172 -0.00016246 0.30901699 0.95105652 -0.00000000
0.02351483 0.07154311 -0.00134538 -0.00463473 -0.01426424 0.99988752
0.02925972 0.10089648 0.00019378 0.30901699 0.95105652 0.00000000
0.03530684 0.09265131 0.00093528 0.94052761 -0.25669715 0.22251830
0.02896282 0.08006797 0.00119851 0.00463473 0.01426424 0.99988752
0.03004242 0.07107352 -0.00131264 0.68640406 -0.19575377 -0.70037842
0.02120066 0.07847745 -0.00125718 -0.00463473 -0.01426424 0.99988752
0.03114725 0.07560203 0.00082976 0.95685700 -0.24435959 0.15720391
0.03346718 0.08985738 -0.00103798 0.13299866 -0.01140969 -0.99105054
0.03564989 0.09405740 -0.00053905 0.96575177 -0.25728029 -0.03362113
0.02917765 0.10092314 0.00116974 0.30901699 0.95105652 0.00000000
0.01908369 0.06214438 0.00064223 0.30901699 0.95105652 0.00000000
0.03413350 0.08784205 -0.00059819 0.97239506 -0.22529130 -0.06075911
0.03582628 0.09478040 -0.00053218 0.97121402 -0.22848018 -0.06738052
0.01468885 0.06837059 -0.00011926 0.92528154 -0.37928100 -0.00000000
0.03479473 0.09055225 -0.00086661 0.94133920 -0.15923425 -0.29753144
0.02828345 0.10121369 0.00035685 0.30389377 0.95270082 -0.00311925
0.02963341 0.09520672 -0.00097944 -0.00463473 -0.01426424 0.99988752
0.02133110 0.08303663 0.00119154 -0.44972098 0.01972251 0.89295132
0.02939319 0.09507325 0.00098245 0.00463473 0.01426424 0.99988752
0.03212453 0.08122791 0.00116731 0.44303824 -0.23473093 0.86522743
0.02622052 0.06591901 0.00141307 0.00463473 0.01426424 0.99988752
0.02319263 0.06080930 -0.00129181 -0.23212989 -0.92345071 -0.30553969
0.02380998 0.08668555 -0.00112799 0.04932734 -0.02292908 0.99851944
0.01648406 0.06298905 -0.00001357 -0.30901699 -0.95105652 -0.00000000
0.01889113 0.07104864 -0.00137387 -0.00463473 -0.01426424 0.99988752
0.03009660 0.09434235 0.00098962 0.00463473 0.01426424 0.99988752
0.03546927 0.09331707 0.00096571 0.94399377 -0.24339121 0.22279246
0.03486476 0.09083933 -0.00055464 0.97575358 -0.21335223 -0.04884440
0.02342188 0.06073482 -0.00062296 -0.30901699 -0.95105652 -0.00000000
0.02066148 0.08294122 0.00098576 0.87433270 -0.33426880 -0.35186176
0.03244409 0.08734127 -0.00107862 -0.06218044 0.00733818 0.99803795
0.02671360 0.09770578 0.00058097 0.92194336 -0.38198474 -0.06409446
0.02842620 0.10116730 -0.00089435 0.31975080 0.94748697 -0.00527911
0.03197100 0.08396717 -0.00112894 -0.14377167 -0.02515581 0.98929111
0.02186594 0.08280754 0.00119233 -0.10094447 0.06263922 0.99291819
0.02879905 0.10034177 0.00091005 0.09229572 0.07917629 0.99257877
0.01961121 0.08037900 -0.00122346 -0.77308926 0.32427278 -0.54514233
0.02384278 0.07393194 -0.00130978 -0.00463473 -0.01426424 0.99988752
0.03320525 0.08403734 0.00012908 0.97150427 -0.23702207 -0.00000000
0.02476111 0.07210531 -0.00133158 -0.00463473 -0.01426424 0.99988752
0.02600007 0.09596508 0.00057958 0.91983638 -0.39188154 -0.01816301
0.02652754 0.09725187 -0.00047623 0.92256616 -0.38476688 0.02874230
0.02484139 0.06027359 0.00098327 0.30901699 0.95105652 0.00000000
0.02333941 0.06076161 -0.00110603 0.30901699 0.95105652 -0.00000000
0.02082511 0.06522193 0.00144802 0.00463473 0.01426424 0.99988752
0.02634024 0.07054889 0.00134647 0.00463473 0.01426424 0.99988752
0.02560794 0.10208301 0.00045487 0.30901699 0.95105652 -0.00000000
0.02447360 0.09224114 -0.00096564 0.76961289 -0.36340329 0.52500862
0.03332073 0.09957697 0.00098638 0.40685160 0.91339568 0.01342050
0.02688274 0.10166880 0.00134038 0.30901699 0.95105652 -0.00000000
0.02685612 0.06653015 0.00140141 0.00463473 0.01426424 0.99988752
0.03080653 0.07420546 0.00102390 0.96107172 -0.23750092 0.14118948
0.01990334 0.07964749 0.00124650 -0.33210362 0.11466950 0.93624681
0.03067252 0.09617180 -0.00096085 0.00463473 0.01426424 -0.99988752
0.02987743 0.07039729 0.00001862 0.97150427 -0.23702207 -0.00000000
0.01516159 0.06341874 0.00058749 -0.30901699 -0.95105652 0.00000000
0.02656821 0.09735109 0.00003474 0.92528154 -0.37928100 0.00000000
0.03536412 0.09288608 0.00048169 0.97397375 -0.22205836 0.04544465
0.01598027 0.07152108 -0.00112439 0.93004936 -0.36677782 0.02195953
0.01720880 0.07451817 -0.00057232 0.92528154 -0.37928100 -0.00000000
0.03318984 0.09961950 -0.00031009 0.30901699 0.95105652 -0.00000000
0.03004951 0.07890784 -0.00121003 -0.00463473 -0.01426424 0.99988752
0.02327233 0.07782884 0.00125683 0.00463473 0.01426424 0.99988752
0.03797708 0.09806403 0.00061381 0.30901699 0.95105652 0.00000000
0.03303750 0.09966900 -0.00079993 0.30901699 0.95105652 0.00000000
0.02486083 0.09121388 -0.00105852 0.40516437 -0.13207382 0.90465371
0.02421650 0.08864893 0.00109810 -0.11612057 0.07650673 0.99028417
0.02885620 0.10102759 -0.00084500 -0.35355039 -0.93271906 0.07097380
0.02757882 0.06097577 -0.00087723 0.97150427 -0.23702207 0.00000000
0.02408647 0.07497873 0.00129372 0.00463473 0.01426424 0.99988752
0.02137239 0.07503533 -0.00130549 -0.00463473 -0.01426424 0.99988752
0.02806860 0.06298327 -0.00019066 0.97150427 -0.23702207 0.00000000
0.03011154 0.07135686 0.00006550 0.97150427 -0.23702207 0.00000000
0.03641676 0.09857101 -0.00074583 -0.30901699 -0.95105652 -0.00000000
0.03193220 0.09251024 -0.00100725 -0.00463473 -0.01426424 0.99988752
0.02633811 0.09350297 -0.00101902 0.04254044 -0.02536181 0.99877279
0.03237611 0.09988390 -0.00041200 0.30901699 0.95105652 -0.00000000
0.01679024 0.06288956 -0.00086963 -0.30901699 -0.95105652 0.00000000
0.02927431 0.07251721 0.00130479 0.06259332 -0.01648424 0.99790297
0.01785601 0.07609708 0.00024071 0.92528154 -0.37928100 0.00000000
0.02869483 0.10108002 -0.00049344 0.30901699 0.95105652 0.00000000
0.03500135 0.09139918 -0.00032165 0.97150427 -0.23702207 -0.00000000
0.02508338 0.09372874 0.00005265 0.92528154 -0.37928100 0.00000000
0.02064007 0.06234959 0.00148986 0.05028539 -0.57330832 0.81779517
0.02113857 0.06147671 -0.00072725 0.30901699 0.95105652 -0.00000000
0.01873316 0.07426874 0.00132866 -0.01199799 0.02165691 0.99969347
0.01986158 0.06189162 -0.00014166 0.30901699 0.95105652 0.00000000
0.02296592 0.08779682 0.00111605 0.71217658 -0.23847191 -0.66025424
0.01467819 0.06834458 0.00117352 0.92272318 -0.37338500 -0.09573703
0.03000083 0.10065567 0.00009601 0.30901699 0.95105652 -0.00000000
0.01855771 0.06231528 0.00045997 -0.30901699 -0.95105652 0.00000000
0.02402424 0.08623285 -0.00113346 -0.00463473 -0.01426424 0.99988752
0.02797460 0.10131403 -0.00048681 -0.43461764 -0.90022801 -0.02640130
0.03599550 0.09870789 -0.00028751 0.30901699 0.95105652 0.00000000
0.02261642 0.08771042 -0.00061187 0.92528154 -0.37928100 -0.00000000
0.02905329 0.06701931 0.00042041 0.97150427 -0.23702207 -0.00000000
0.02440503 0.09207386 -0.00051624 0.92294162 -0.37657257 0.07982399
0.03199715 0.07908556 -0.00063596 0.97457435 -0.21817081 -0.05105224
0.01352027 0.06551976 0.00143847 -0.85181758 0.37419155 0.36658900
0.03097301 0.07488784 0.00049853 0.97150427 -0.23702207 -0.00000000
0.02622496 0.07672008 -0.00125896 -0.00463473 -0.01426424 0.99988752
0.01606256 0.06312600 0.00095556 0.30901699 0.95105652 0.00000000
0.02484009 0.07011430 -0.00135962 -0.00463473 -0.01426424 0.99988752
0.02445625 0.07943167 0.00122848 0.00463473 0.01426424 0.99988752
0.02168183 0.06358846 0.00146736 0.00463473 0.01426424 0.99988752
0.03559933 0.09385015 0.00082236 0.97482525 -0.17502269 0.13814050
0.03333678 0.09957176 -0.00117046 0.30901699 0.95105652 0.00000000
0.03199432 0.09397648 0.00098604 0.00463473 0.01426424 0.99988752
0.02325656 0.08927209 0.00078306 0.94040896 -0.31661095 -0.12405038
0.02591523 0.07337721 -0.00130809 -0.00463473 -0.01426424 0.99988752
0.02716638 0.08949353 0.00107238 0.00463473 0.01426424 0.99988752
0.02963890 0.07843390 0.00121869 0.00463473 0.01426424 0.99988752
0.02177406 0.07562203 0.00129526 0.00463473 0.01426424 0.99988752
0.02311494 0.08892659 -0.00082859 0.85232562 -0.36418320 0.37538198
0.02473381 0.09287595 -0.00048885 0.92176483 -0.38571790 0.03963956
0.02894993 0.08790064 0.00108683 0.00463473 0.01426424 0.99988752
0.03714173 0.09833545 0.00001143 -0.30901699 -0.95105652 -0.00000000
0.01773221 0.06258350 0.00067728 0.30901699 0.95105652 -0.00000000
0.02391611 0.06057423 0.00087549 0.30901699 0.95105652 -0.00000000
0.02512456 0.06018158 -0.00084974 -0.30901699 -0.95105652 -0.00000000
0.03386890 0.09939886 -0.00054458 0.30901699 0.95105652 0.00000000
0.01470808 0.06841749 0.00024892 0.92528154 -0.37928100 0.00000000
0.02421566 0.09161188 0.00094938 0.73766781 -0.31698788 -0.59612488
0.02942801 0.09886138 -0.00092825 -0.00463473 -0.01426424 0.99988752
0.03284460 0.09973168 0.00034284 0.30901699 0.95105652 -0.00000000
0.02261863 0.06099581 0.00041962 0.30901699 0.95105652 -0.00000000
0.03301811 0.09544800 0.00096031 0.00463473 0.01426424 0.99988752
0.03478033 0.09049327 -0.00019694 0.97150427 -0.23702207 -0.00000000
0.03392570 0.09779396 -0.00092263 -0.00235276 -0.01089618 0.99993787
0.02557909 0.06003389 0.00095538 0.30901699 0.95105652 -0.00000000
0.02913387 0.07864607 -0.00121800 -0.00463473 -0.01426424 0.99988752
0.02465994 0.06033254 0.00053901 -0.30901699 -0.95105652 0.00000000
0.03163176 0.07796521 0.00121614 0.96664157 -0.13024296 0.22054670
0.03331439 0.09592523 0.00095212 0.00463473 0.01426424 0.99988752
0.01607985 0.07176403 -0.00018488 0.92528154 -0.37928100 -0.00000000
0.02853181 0.10113299 -0.00084969 0.35755578 0.93346845 -0.02811628
0.02164222 0.08533379 -0.00095061 0.89437243 -0.43162348 0.11746973
0.03155689 0.10015008 -0.00027218 -0.30901699 -0.95105652 0.00000000
0.02767943 0.10140994 -0.00096081 0.30901699 0.95105652 0.00000000
0.03234970 0.08053060 -0.00023977 0.97150427 -0.23702207 0.00000000
0.03003877 0.09237003 -0.00101803 -0.00463473 -0.01426424 0.99988752
0.03189895 0.07868307 -0.00036132 0.97150427 -0.23702207 -0.00000000
0.03415835 0.08988466 0.00103439 0.57560670 0.05522152 0.81585998
0.03118021 0.07573710 0.00073581 0.96923224 -0.24336555 0.03690622
0.02895791 0.06662837 0.00051615 0.97150427 -0.23702207 0.00000000
0.03024633 0.07595750 -0.00125120 0.23923580 -0.08795221 -0.96696982
0.03409623 0.08768927 -0.00028806 0.97150427 -0.23702207 0.00000000
0.03043366 0.09427995 -0.00098895 -0.00463473 -0.01426424 0.99988752
0.02959235 0.09118330 -0.00103702 -0.00463473 -0.01426424 0.99988752
0.02660453 0.07544969 -0.00127533 -0.00463473 -0.01426424 0.99988752
0.02542552 0.08444192 -0.00115251 -0.00463473 -0.01426424 0.99988752
0.03064604 0.07354764 -0.00113594 0.86227581 -0.17065807 -0.47681888
0.02367129 0.09028386 0.00004535 0.92528154 -0.37928100 -0.00000000
0.01959330 0.08033532 -0.00085099 0.91728997 -0.39697371 0.03148002
0.01533140 0.06336357 0.00069329 0.30901699 0.95105652 -0.00000000
0.01583449 0.06373829 0.00149232 0.17375263 0.40543048 -0.89746095
0.02534993 0.07441470 -0.00129591 -0.00463473 -0.01426424 0.99988752
0.02631432 0.09673171 0.00015995 0.92528154 -0.37928100 0.00000000
0.02981513 0.07226533 0.00130587 -0.57196560 0.20806952 -0.79344970
0.03097225 0.07488474 -0.00101015 0.95037020 -0.24687150 -0.18934346
0.02279154 0.06093963 0.00014671 0.30901699 0.95105652 -0.00000000
0.01873666 0.06623653 0.00144323 0.00463473 0.01426424 0.99988752
0.01769827 0.07571226 -0.00102033 0.89576948 -0.41876780 0.14909917
0.01634645 0.06303376 -0.00039342 0.30901699 0.95105652 0.00000000
0.03149066 0.09836382 0.00092579 0.00463473 0.01426424 0.99988752
0.02652914 0.09265012 0.00103030 0.00463473 0.01426424 0.99988752
0.01712176 0.06278185 -0.00033563 -0.30901699 -0.95105652 0.00000000
0.02148292 0.06136482 0.00036112 -0.30901699 -0.95105652 -0.00000000
0.03051311 0.07844111 0.00121453 0.10523383 -0.04088177 0.99360682
0.02486571 0.09319771 0.00017541 0.92528154 -0.37928100 0.00000000
0.01564105 0.06326296 -0.00094500 -0.30901699 -0.95105652 -0.00000000
0.02387869 0.07493391 -0.00129532 -0.00463473 -0.01426424 0.99988752
0.03579135 0.09463723 -0.00078213 0.96349844 -0.21647380 -0.15751145
0.02856857 0.09736942 -0.00095352 -0.00463473 -0.01426424 0.99988752
0.03033561 0.10054690 -0.00009140 0.30901699 0.95105652 0.00000000
0.01620920 0.06659243 -0.00144987 -0.00463473 -0.01426424 0.99988752
0.02379421 0.06061384 -0.00004439 -0.30901699 -0.95105652 0.00000000
0.03007512 0.07120759 -0.00032762 0.97150427 -0.23702207 0.00000000
0.01732533 0.06776774 0.00142793 0.00463473 0.01426424 0.99988752
0.01944034 0.07666964 -0.00129113 0.06975931 -0.05483726 0.99605548
0.01724347 0.07460275 0.00042028 0.92528154 -0.37928100 -0.00000000
0.02320086 0.06080663 -0.00051085 -0.30901699 -0.95105652 -0.00000000
0.03578762 0.09877543 -0.00057310 0.30901699 0.95105652 -0.00000000
0.02837998 0.07147939 0.00132374 0.00463473 0.01426424 0.99988752
0.02346682 0.07217608 0.00133657 0.00463473 0.01426424 0.99988752
0.02657127 0.07737316 0.00124804 0.00463473 0.01426424 0.99988752
0.02337859 0.07819566 -0.00125111 -0.00463473 -0.01426424 0.99988752
0.01955337 0.08023790 -0.00076409 0.92286381 -0.38489635 0.01331139
0.02349281 0.06071177 0.00060735 0.30901699 0.95105652 0.00000000
0.02701590 0.05956705 -0.00028622 -0.40333085 0.90694911 0.12152178
0.03617173 0.09619631 0.00015890 0.97150427 -0.23702207 0.00000000
0.03614397 0.09865965 -0.00100690 0.24544465 0.96934549 0.01123577
0.02356500 0.09002456 0.00066270 0.90942822 -0.40561193 -0.09175657
0.02490700 0.06689129 -0.00140529 -0.00463473 -0.01426424 0.99988752
0.03748071 0.09822531 0.00068647 0.30901699 0.95105652 -0.00000000
0.01374764 0.06607443 0.00047088 0.92528154 -0.37928100 -0.00000000
0.03342818 0.08495109 -0.00019394 0.97150427 -0.23702207 0.00000000
0.03045015 0.07274473 0.00008687 0.97150427 -0.23702207 0.00000000
0.02175066 0.08446272 0.00116925 0.27202800 -0.30786827 -0.91171152
0.02490096 0.09191285 0.00104836 0.72168128 -0.30995373 -0.61895461
0.03248176 0.08107189 -0.00086600 0.96974351 -0.24329398 -0.02013843
0.02380009 0.06361890 0.00145710 0.00463473 0.01426424 0.99988752
0.02588364 0.06252743 0.00146302 0.00463473 0.01426424 0.99988752
0.03546354 0.09329359 0.00023780 0.97150427 -0.23702207 -0.00000000
0.03110926 0.10029552 -0.00059520 -0.30901699 -0.95105652 0.00000000
0.01824042 0.06241837 -0.00025113 -0.30901699 -0.95105652 -0.00000000
0.02929543 0.06801180 -0.00096576 0.96354931 -0.25177466 -0.09045582
0.02930088 0.08821849 0.00108067 0.00463473 0.01426424 0.99988752
0.03403774 0.09934400 -0.00123013 0.32550492 0.94276398 0.07240603
0.02266763 0.08017224 0.00122620 0.00463473 0.01426424 0.99988752
0.03053532 0.08679045 -0.00109532 -0.00463473 -0.01426424 0.99988752
0.02963059 0.08492263 0.00112616 0.00463473 0.01426424 0.99988752
0.02473393 0.09287624 -0.00073752 0.85396675 -0.37611682 0.35955101
0.02434562 0.09192893 0.00046871 0.92528154 -0.37928100 0.00000000
0.01680492 0.06288480 0.00106814 -0.30901699 -0.95105652 -0.00000000
0.02283335 0.06092604 -0.00060749 0.30901699 0.95105652 0.00000000
0.02471632 0.06031422 0.00028049 0.30901699 0.95105652 -0.00000000
0.02118315 0.06146222 0.00052690 0.30901699 0.95105652 0.00000000
0.01849498 0.06233566 0.00031110 0.30901699 0.95105652 -0.00000000
0.02345909 0.07924758 0.00123573 0.00463473 0.01426424 0.99988752
0.02550905 0.06459500 0.00143526 0.00463473 0.01426424 0.99988752
0.02499747 0.06536490 -0.00142664 -0.00463473 -0.01426424 0.99988752
0.02692447 0.10165524 0.00119665 0.30901699 0.95105652 -0.00000000
0.03403086 0.09934624 0.00078932 0.25257528 0.96377151 0.08573334
0.02584008 0.07149669 -0.00133526 -0.00463473 -0.01426424 0.99988752
0.03262113 0.08164312 0.00039833 0.97150427 -0.23702207 -0.00000000
0.02961369 0.09004682 0.00105314 0.00463473 0.01426424 0.99988752
0.02405517 0.06190447 0.00148038 -0.04019832 -0.20454799 0.97803078
0.02209087 0.08642832 -0.00092176 0.93312075 -0.33807483 0.12243805
0.01847864 0.07761604 0.00036199 0.92528154 -0.37928100 0.00000000
0.02937382 0.06833310 0.00028637 0.97150427 -0.23702207 0.00000000
0.03359516 0.09948780 -0.00108273 -0.30901699 -0.95105652 0.00000000
0.03222355 0.09993347 -0.00067945 -0.30901699 -0.95105652 -0.00000000
0.01772761 0.06258500 0.00035285 0.30901699 0.95105652 0.00000000
0.02137949 0.06139843 0.00111971 0.25563946 0.96063441 -0.10876582
0.03199706 0.10000706 -0.00067502 -0.30901699 -0.95105652 -0.00000000
0.01981035 0.07925133 0.00125259 -0.31660879 0.08398874 0.94483055
0.02578232 0.09543386 -0.00005199 0.92528154 -0.37928100 -0.00000000
0.02361226 0.06067296 -0.00045203 0.30901699 0.95105652 -0.00000000
0.02283278 0.06092622 0.00083502 0.30901699 0.95105652 0.00000000
0.02409071 0.08053735 0.00121440 0.00463473 0.01426424 0.99988752
0.03431167 0.08857230 -0.00070865 0.96570985 -0.23176356 -0.11700483
0.02245351 0.07116125 -0.00135575 -0.00463473 -0.01426424 0.99988752
0.03006949 0.07902190 -0.00120831 -0.00463473 -0.01426424 0.99988752
0.03383219 0.09941079 0.00089759 0.33189815 0.94317649 0.01617826
0.02031296 0.08209098 -0.00103279 0.91751385 -0.24444432 0.31371214
0.03157444 0.07735297 0.00105832 0.97350257 -0.22809230 0.01632921
0.03333413 0.09160931 0.00101360 0.00463473 0.01426424 0.99988752
0.02876256 0.06582768 0.00100485 0.97258911 -0.23232111 0.00986508
0.03173606 0.07801543 0.00079749 0.97120310 -0.23794996 0.01201447
0.03503776 0.09154842 0.00059108 0.96177143 -0.23683975 0.13748693
0.02581274 0.09550806 -0.00040954 0.91815342 -0.39073670 0.06572010
0.02834351 0.06411008 0.00074232 0.97085038 -0.23386487 0.05250494
0.02764645 0.09511832 -0.00098991 -0.00463473 -0.01426424 0.99988752
0.03401596 0.09935108 -0.00056794 0.30901699 0.95105652 0.00000000
0.01959791 0.06197730 0.00062586 0.30901699 0.95105652 0.00000000
0.01872429 0.06226115 0.00022618 0.30901699 0.95105652 -0.00000000
0.03271597 0.08203188 -0.00045808 0.97150427 -0.23702207 -0.00000000
0.01800619 0.06289947 0.00149422 -0.03674819 -0.56969307 0.82103555
0.03285489 0.08843532 -0.00106110 -0.01983544 -0.00993666 0.99975388
0.03132210 0.07631870 0.00014295 0.97150427 -0.23702207 -0.00000000
0.02582106 0.09552835 -0.00055841 0.91626343 -0.38044794 0.12538216
0.03250064 0.08114928 0.00018608 0.97150427 -0.23702207 -0.00000000
0.03648266 0.09854960 0.00017103 0.35373644 0.93492264 -0.02811046
0.02526913 0.06013461 0.00029663 0.30901699 0.95105652 -0.00000000
0.03382740 0.08872401 -0.00105248 -0.35944715 0.10576423 0.92715245
0.03654917 0.09852799 0.00101089 -0.43044158 -0.90132089 0.04838073
0.02656004 0.10177365 -0.00105476 -0.30901699 -0.95105652 0.00000000
0.02173539 0.08556108 -0.00071151 0.90715551 -0.40472959 0.11516441
0.02282760 0.06092791 0.00061460 0.30901699 0.95105652 -0.00000000
0.03557496 0.09375026 0.00005630 0.97150427 -0.23702207 0.00000000
0.02939587 0.10085224 0.00062347 -0.30901699 -0.95105652 0.00000000
0.02191982 0.07488742 -0.00130506 -0.00463473 -0.01426424 0.99988752
0.03343663 0.08498571 0.00075064 0.96937805 -0.18809080 0.15788619
0.03705226 0.09836452 -0.00016285 0.30278006 0.95306045 -0.00012091
0.01549383 0.06331079 0.00132105 0.28964306 0.93019892 -0.22547031
0.01628628 0.06698292 0.00144394 0.00463473 0.01426424 0.99988752
0.02026494 0.06176057 -0.00045153 0.30901699 0.95105652 -0.00000000
0.01838034 0.06237291 -0.00098532 0.30901699 0.95105652 -0.00000000
0.02857234 0.08714160 0.00109941 0.00463473 0.01426424 0.99988752
0.03218009 0.09239235 0.00100778 0.00463473 0.01426424 0.99988752
0.03204595 0.09999117 0.00082479 0.29187666 0.95641658 0.00867982
0.02527211 0.09418915 0.00052727 0.89394156 -0.41890122 -0.15934320
0.03636186 0.09858885 -0.00016138 0.30901699 0.95105652 0.00000000
0.02162575 0.06795408 -0.00140534 -0.00463473 -0.01426424 0.99988752
0.01689495 0.06285554 -0.00052389 0.30901699 0.95105652 0.00000000
0.02030015 0.06174913 0.00047865 -0.30901699 -0.95105652 -0.00000000
0.02815837 0.07204275 0.00131673 0.00463473 0.01426424 0.99988752
0.01569623 0.06324503 0.00071191 -0.30901699 -0.95105652 0.00000000
0.03072593 0.10042007 0.00100385 0.30901699 0.95105652 0.00000000
0.01919202 0.06530451 0.00145442 0.00463473 0.01426424 0.99988752
0.02793522 0.09110860 -0.00104577 -0.00463473 -0.01426424 0.99988752
0.01712501 0.07431376 -0.00101641 0.92936794 -0.36035401 0.08012628
0.01702026 0.07405821 -0.00118154 0.92398994 -0.36840156 0.10258105
0.02181408 0.08575306 0.00043934 0.92528154 -0.37928100 0.00000000
0.01896944 0.07291849 0.00134683 0.00463473 0.01426424 0.99988752
0.03150525 0.10016686 0.00014382 -0.30901699 -0.95105652 -0.00000000
0.03585994 0.09491837 0.00015583 0.97150427 -0.23702207 -0.00000000
0.02317096 0.07783465 -0.00125722 -0.00463473 -0.01426424 0.99988752
0.03189366 0.09766660 0.00093387 0.00463473 0.01426424 0.99988752
0.02902326 0.09854496 -0.00093464 -0.00463473 -0.01426424 0.99988752
0.02114264 0.07020543 0.00137546 0.00463473 0.01426424 0.99988752
0.01952232 0.08016215 0.00094062 0.85541592 -0.37517693 -0.35707964
0.03412749 0.09889905 -0.00090593 -0.36052669 0.76340515 -0.53594131
0.02844066 0.06450825 0.00031886 0.97150427 -0.23702207 -0.00000000
0.02018513 0.08177914 -0.00061519 0.92778369 -0.37232511 0.02431935
0.01952371 0.08016556 -0.00029611 0.92528154 -0.37928100 -0.00000000
0.03492006 0.09106597 -0.00035407 0.97150427 -0.23702207 0.00000000
0.02876006 0.06581741 -0.00083024 0.96846867 -0.24779057 -0.02585078
0.01632320 0.07235769 0.00130832 0.92458302 -0.36967948 -0.09210495
0.02888810 0.06634224 -0.00102770 0.96976698 -0.19739365 -0.14348432
0.01565228 0.06325931 0.00018598 -0.30901699 -0.95105652 0.00000000
0.01687511 0.07370412 0.00080363 0.92384313 -0.38268342 -0.00820177
0.02901973 0.10097445 0.00104011 0.30901699 0.95105652 0.00000000
0.03196547 0.08768966 0.00107586 0.00463473 0.01426424 0.99988752
0.02161120 0.06132314 -0.00078275 0.30901699 0.95105652 -0.00000000
0.03737365 0.09826010 -0.00000690 -0.30901699 -0.95105652 0.00000000
0.02688142 0.09293761 0.00102456 0.00463473 0.01426424 0.99988752
0.02122275 0.08353925 0.00118487 -0.59368142 0.22470526 0.77269005
0.03161002 0.10013281 -0.00092975 0.31140116 0.95027767 -0.00128965
0.02347451 0.08250290 0.00118922 0.00463473 0.01426424 0.99988752
0.03080801 0.09154949 0.00102617 0.00463473 0.01426424 0.99988752
0.01927245 0.06208305 -0.00091172 -0.30901699 -0.95105652 -0.00000000
0.02140900 0.06138884 -0.00024028 -0.30901699 -0.95105652 0.00000000
0.02633267 0.09677647 -0.00081359 0.91909333 -0.39263577 0.03323549
0.02807404 0.07605757 0.00125984 0.00463473 0.01426424 0.99988752
0.03116552 0.07567689 0.00024769 0.97150427 -0.23702207 -0.00000000
0.02682534 0.09533636 0.00099060 0.11105542 -0.03823974 -0.99307825
0.02132300 0.08015656 -0.00123266 -0.00463473 -0.01426424 0.99988752
0.02068430 0.08299689 0.00066314 0.92422390 -0.37702232 -0.06053383
0.02430235 0.09182335 -0.00089369 0.91026180 -0.31436713 0.26943785
0.02211596 0.07747740 0.00126721 0.00463473 0.01426424 0.99988752
0.02132274 0.08051221 -0.00122759 0.08693785 -0.05024618 0.99494579
0.02415876 0.06049539 -0.00008579 0.30901699 0.95105652 -0.00000000
0.01672969 0.06851059 -0.00142009 -0.00463473 -0.01426424 0.99988752
0.01993116 0.08115954 -0.00100698 0.87868084 -0.40980749 0.24490364
0.02942159 0.10084388 -0.00003377 -0.30901699 -0.95105652 -0.00000000
0.02263772 0.07390211 -0.00131579 -0.00463473 -0.01426424 0.99988752
0.02859740 0.07744301 0.00123765 0.00463473 0.01426424 0.99988752
0.01507483 0.06344693 -0.00081438 -0.30901699 -0.95105652 -0.00000000
0.02784011 0.06204674 0.00081017 0.97150427 -0.23702207 0.00000000
0.03087827 0.10037057 -0.00012396 0.30901699 0.95105652 0.00000000
