ply
format ascii 1.0
element vertex 1370
property float x
property float y
property float z
end_header
-0.01593752 -0.06571269 -0.00048696
-0.00542509 -0.05902468 0.00040110
-0.01346431 -0.08295538 0.00051100
-0.01840772 -0.08692377 -0.00106909
-0.00399009 -0.06013139 0.00022325
-0.00812293 -0.06950811 0.00067650
-0.01285302 -0.08694877 0.00059947
-0.00306593 -0.05718935 0.00006999
-0.01565400 -0.08329293 -0.00003680
-0.01511860 -0.05827889 -0.00020316
-0.00741752 -0.06868622 0.00064610
-0.01223357 -0.06785971 0.00044943
-0.01415145 -0.06765482 -0.00016023
-0.00437940 -0.06276228 0.00032895
-0.00738828 -0.06984109 0.00058753
-0.01353354 -0.07055964 -0.00001238
-0.01817418 -0.08493787 -0.00098964
-0.01378949 -0.06059859 0.00021324
-0.01329790 -0.06656413 0.00027888
-0.01338214 -0.05507716 0.00006811
-0.01360222 -0.06864187 -0.00004713
-0.01443128 -0.06895411 -0.00021134
-0.00774904 -0.06502672 0.00061581
-0.00956491 -0.06040673 0.00036602
-0.01618252 -0.08390194 -0.00042407
-0.01433286 -0.06243256 0.00009377
-0.00788233 -0.07345199 0.00068678
-0.01431530 -0.07493029 -0.00011242
-0.01403296 -0.08248270 0.00037862
-0.01713709 -0.08552549 -0.00070469
-0.00349835 -0.05902944 0.00015928
-0.01485316 -0.07994836 -0.00013390
-0.01573971 -0.06014108 -0.00020743
-0.00919485 -0.07949333 0.00082195
-0.01625286 -0.07042761 -0.00060393
-0.00542233 -0.06715663 0.00050883
-0.01393005 -0.08747972 0.00055248
-0.01530537 -0.05778301 -0.00004975
-0.01792455 -0.08530911 -0.00084833
-0.01013686 -0.08496729 0.00098319
-0.01543973 -0.07863034 -0.00033124
-0.01381145 -0.08620213 0.00035556
-0.01302547 -0.08413383 0.00062413
-0.00432656 -0.05869793 0.00026698
-0.01501433 -0.08115064 0.00009560
-0.01565591 -0.08154749 -0.00032368
-0.01307913 -0.06367068 0.00001984
-0.00911776 -0.06275779 0.00062951
-0.00844378 -0.05657016 0.00037311
-0.01474046 -0.08687235 0.00013547
-0.01608934 -0.07609792 -0.00055438
-0.01609125 -0.06754142 -0.00054188
-0.01589862 -0.07618989 -0.00050148
-0.01162725 -0.07586689 0.00062747
-0.01170142 -0.05505998 0.00022976
-0.01053389 -0.08223696 0.00078604
-0.01461274 -0.07566714 0.00008709
-0.00400444 -0.05899929 0.00022882
-0.00689009 -0.06423894 0.00056607
-0.01515302 -0.07989075 -0.00021945
-0.01296790 -0.08421179 0.00063612
-0.01313424 -0.08482238 0.00045627
-0.01737916 -0.07564830 -0.00083911
-0.00802175 -0.06300655 0.00043272
-0.01442097 -0.06973819 0.00006631
-0.00486525 -0.06481237 0.00041555
-0.00954057 -0.08434713 0.00100359
-0.00986229 -0.07777660 0.00080047
-0.01405329 -0.05450650 0.00001493
-0.01171885 -0.07504652 0.00039750
-0.01544554 -0.05940867 -0.00027010
-0.01608356 -0.07643343 -0.00032243
-0.01574675 -0.05995391 -0.00020746
-0.01173341 -0.06153463 0.00019797
-0.01644480 -0.08327874 -0.00030365
-0.00743209 -0.07543319 0.00078427
-0.01106857 -0.08601811 0.00093481
-0.01552374 -0.07923444 -0.00009743
-0.00556716 -0.05787082 0.00041169
-0.00686593 -0.06402233 0.00056256
-0.00873531 -0.06314261 0.00062917
-0.01269283 -0.08630159 0.00060495
-0.00829584 -0.07282102 0.00064778
-0.00480595 -0.06456247 0.00040524
-0.01081414 -0.07062505 0.00041033
-0.01321419 -0.08574788 0.00063838
-0.01592480 -0.06153249 -0.00028238
-0.01012981 -0.07895944 0.00081339
-0.00902079 -0.08218542 0.00095976
-0.00987397 -0.08521774 0.00100073
-0.00894142 -0.06335404 -0.00037397
-0.00445430 -0.07918839 0.00039571
-0.00656874 -0.08113681 -0.00016155
-0.00368580 -0.08575112 0.00056808
0.00318916 -0.05944792 0.00017591
-0.00284098 -0.08714338 0.00059044
0.00264603 -0.05786599 0.00016091
-0.00453943 -0.07581047 0.00014160
-0.00756668 -0.07290215 -0.00051396
-0.00859897 -0.07381062 -0.00075275
-0.00495066 -0.08594390 0.00006297
0.00184330 -0.06979907 0.00060707
0.00081486 -0.07632617 0.00077788
-0.00899699 -0.06052956 -0.00025372
0.00013370 -0.06045164 0.00037351
-0.00239352 -0.05676813 0.00063978
0.00196009 -0.06989992 0.00060191
-0.00575068 -0.06720332 0.00026446
0.00072936 -0.06006563 0.00034321
-0.00740507 -0.07685063 -0.00034561
0.00011778 -0.08503754 0.00100643
-0.00512162 -0.08592343 0.00023429
-0.00806997 -0.05695278 0.00016512
-0.00251641 -0.06855042 0.00062557
0.00045869 -0.05887176 0.00033224
-0.00842968 -0.07998075 -0.00081478
-0.00279543 -0.05769554 0.00063759
-0.00686533 -0.08382668 -0.00052601
-0.00177373 -0.07638873 0.00072408
-0.00758213 -0.07768289 -0.00042441
-0.00420540 -0.06097536 0.00025717
-0.00860133 -0.07213508 -0.00069919
-0.00536136 -0.07740601 -0.00004443
0.00053902 -0.06461009 0.00044783
-0.00568494 -0.08503240 0.00007488
-0.00048590 -0.07940746 0.00076540
-0.00891632 -0.06459250 -0.00042404
-0.00099060 -0.08777334 0.00093002
-0.00685104 -0.08138963 -0.00025700
0.00341592 -0.05765589 0.00009365
-0.00876117 -0.07187004 -0.00068533
-0.00592156 -0.08180276 -0.00021637
-0.00381538 -0.08221096 0.00052247
-0.00152240 -0.08731180 0.00083234
0.00189277 -0.05905479 0.00025256
-0.00148510 -0.06307470 0.00041653
0.00109807 -0.06489946 0.00044577
-0.00749590 -0.05916487 0.00017820
-0.00061826 -0.07812617 0.00081021
0.00020386 -0.07548991 0.00071431
-0.00881051 -0.06961422 -0.00061037
-0.00755097 -0.06379173 -0.00024778
0.00236004 -0.05659397 0.00021823
-0.00866037 -0.07547491 -0.00076926
-0.00548242 -0.07628332 0.00019156
-0.00301699 -0.06997351 0.00036479
-0.00221983 -0.06506381 0.00040291
-0.00303887 -0.08171750 0.00064507
-0.00050391 -0.06655012 0.00048447
0.00136816 -0.05660763 0.00035122
-0.00340400 -0.06818853 0.00056377
-0.00005772 -0.07396784 0.00065873
0.00117664 -0.06347561 0.00049673
-0.00888002 -0.06634837 -0.00049224
-0.00479282 -0.08123859 0.00008971
-0.00028651 -0.08834064 0.00106162
-0.00863701 -0.07738133 -0.00084555
-0.00671911 -0.08738573 -0.00029211
0.00059561 -0.06388383 0.00043050
0.00114804 -0.07660134 0.00081170
-0.00347503 -0.06599215 0.00030554
-0.00484583 -0.06971459 0.00010575
0.00036129 -0.05910602 0.00034099
0.00211529 -0.05663192 0.00025318
-0.00010730 -0.08335313 0.00091961
0.00148131 -0.07061166 0.00064424
-0.00027667 -0.07037150 0.00068429
-0.00856657 -0.05766954 0.00003269
-0.00669966 -0.07129876 -0.00001769
-0.00635666 -0.08339826 -0.00035900
-0.00159793 -0.07873926 0.00076519
-0.00600028 -0.06401718 -0.00000741
0.00052879 -0.07606529 0.00079505
0.00201120 -0.05745692 0.00028485
-0.00654265 -0.05771956 0.00037585
-0.00173280 -0.06322511 0.00041093
-0.00082005 -0.06602374 0.00046914
-0.00360441 -0.08714718 0.00059522
0.00209647 -0.06082475 0.00029182
-0.00903337 -0.05860658 -0.00016704
-0.00827580 -0.07336612 -0.00068330
-0.00217525 -0.08800189 0.00073530
0.00131139 -0.07525818 0.00077356
-0.00455462 -0.07466983 0.00013933
-0.00047989 -0.07674790 0.00069898
-0.00320905 -0.06635205 0.00033226
0.00005408 -0.06134033 0.00054713
-0.00388255 -0.08112432 0.00029827
-0.00771346 -0.07672750 -0.00064542
-0.00640720 -0.06963407 0.00008654
-0.00655587 -0.06002828 0.00000696
-0.00836405 -0.08373980 -0.00098393
-0.00424683 -0.08117075 0.00021897
-0.00374451 -0.08013639 0.00031881
-0.00126406 -0.06806923 0.00048384
-0.00326399 -0.08776556 0.00066551
-0.00782955 -0.07302063 -0.00037373
-0.00615536 -0.07886847 -0.00025925
-0.00885248 -0.06765613 -0.00054091
-0.00854674 -0.08129015 -0.00093945
-0.00779261 -0.05528986 0.00028413
-0.00411220 -0.06927472 0.00048521
-0.00759822 -0.07909514 -0.00066880
-0.00816464 -0.08859219 -0.00103477
-0.00070117 -0.05708878 0.00035351
-0.00336918 -0.08753413 0.00064377
-0.00178368 -0.08421350 0.00082858
-0.00516047 -0.07196345 0.00003249
-0.00013882 -0.08644480 0.00101686
-0.00798931 -0.08465727 -0.00090267
-0.00365297 -0.06427910 0.00056200
-0.00857553 -0.07957206 -0.00088230
-0.00482573 -0.07610227 0.00033256
0.00166210 -0.07031060 0.00062914
-0.00880104 -0.07005084 -0.00062531
-0.00670676 -0.06763566 0.00006786
-0.00335564 -0.05909893 0.00061756
-0.00066275 -0.06729981 0.00049385
-0.00556801 -0.08230942 -0.00011696
-0.00079166 -0.06430690 0.00061969
0.00042052 -0.07721508 0.00077927
0.00058843 -0.06201287 0.00038964
-0.00890632 -0.06508023 -0.00044331
-0.00030593 -0.06000343 0.00055741
-0.00502222 -0.07765310 0.00003478
-0.00151774 -0.07496912 0.00057395
0.00092921 -0.06164027 0.00048326
-0.00770000 -0.08423537 -0.00080365
-0.00245199 -0.06889151 0.00041396
0.00040426 -0.06598981 0.00048022
0.00094086 -0.05890073 0.00043719
-0.00066509 -0.07473575 0.00075046
-0.00791337 -0.08244119 -0.00066656
-0.00497924 -0.06943985 0.00008503
0.00058796 -0.05973398 0.00034279
-0.00380498 -0.07579575 0.00028032
0.00032541 -0.06564648 0.00059135
-0.00872164 -0.07364705 -0.00074054
-0.00853881 -0.08163077 -0.00094686
-0.00619451 -0.07155583 0.00009569
-0.00349417 -0.08003936 0.00056645
-0.00191976 -0.08815771 0.00078493
-0.00571703 -0.06625877 -0.00000197
-0.00655936 -0.06479219 -0.00011345
0.00037523 -0.08293323 0.00096510
-0.00320410 -0.07295262 0.00035864
-0.00494678 -0.07633799 0.00030696
-0.00154187 -0.07612171 0.00059167
-0.00151867 -0.08404629 0.00085258
-0.00698864 -0.07201456 -0.00010741
-0.00485377 -0.05668334 0.00057515
-0.00025688 -0.07553613 0.00077308
-0.00139684 -0.08370730 0.00076442
-0.00237245 -0.05706325 0.00063810
-0.00518698 -0.06107016 0.00015412
0.00321171 -0.05939736 0.00017570
-0.00884004 -0.06824062 -0.00056207
-0.00411834 -0.06552115 0.00051205
-0.00385179 -0.08816274 0.00037807
0.00218557 -0.06080647 0.00034101
0.00057954 -0.06146933 0.00037846
-0.00729285 -0.07498996 -0.00026531
0.00016386 -0.05798790 0.00050077
-0.00654735 -0.07866619 -0.00036492
-0.00853431 -0.08182419 -0.00095101
-0.00402954 -0.08763942 0.00032675
0.00049482 -0.06032417 0.00035835
-0.00624243 -0.08507179 -0.00010117
-0.00092845 -0.08010321 0.00073754
-0.00685637 -0.06698505 0.00005247
-0.00689742 -0.05675195 0.00035943
-0.00225198 -0.06292373 0.00062622
-0.00836062 -0.07160358 -0.00064363
-0.00710290 -0.06422599 -0.00018869
0.00021265 -0.05755532 0.00032156
-0.00895186 -0.06283262 -0.00035241
-0.00331375 -0.08261063 0.00042896
-0.00783636 -0.06033176 0.00006912
-0.00007841 -0.07041292 0.00057303
-0.00226633 -0.06852580 0.00063755
-0.00764436 -0.07525277 -0.00059183
-0.00548913 -0.07327405 0.00022278
-0.00080540 -0.07578453 0.00076320
-0.00211342 -0.06788600 0.00064088
0.00122398 -0.06665362 0.00049235
-0.00604863 -0.06979379 -0.00011801
0.00185017 -0.07081106 0.00063330
-0.00556074 -0.07607770 0.00017564
-0.00344328 -0.08765940 0.00046907
-0.00269783 -0.08737732 0.00075590
-0.00539346 -0.06865177 0.00002062
0.00212154 -0.06855899 0.00055410
-0.00197720 -0.06307274 0.00062859
-0.00364146 -0.06591158 0.00055287
0.00215842 -0.06825214 0.00054288
-0.00055481 -0.07732288 0.00079799
-0.00565633 -0.07881348 0.00012574
-0.00156246 -0.05839025 0.00037878
-0.00252408 -0.08193682 0.00071497
-0.00260973 -0.08744359 0.00077023
-0.00103347 -0.06335737 0.00042809
-0.00737020 -0.06859854 -0.00035803
-0.00167528 -0.08249657 0.00069887
-0.00707873 -0.08523130 -0.00061431
-0.00886211 -0.05951677 -0.00013362
-0.00244723 -0.08757326 0.00079609
-0.00842769 -0.08638460 -0.00103726
0.00255348 -0.06495322 0.00041590
-0.00459421 -0.05981720 0.00023361
-0.00125420 -0.08087265 0.00071820
0.00064252 -0.08074650 0.00091705
-0.00102677 -0.06133736 0.00040425
-0.00302294 -0.05824925 0.00063190
-0.00665583 -0.06719282 -0.00018548
-0.00351540 -0.08552497 0.00042336
-0.00272085 -0.08666259 0.00074321
0.00273448 -0.05765602 0.00019235
0.00094043 -0.05767080 0.00028186
-0.00423545 -0.06842565 0.00020769
-0.00272770 -0.08615300 0.00059541
-0.00305751 -0.08657688 0.00053661
-0.00597699 -0.05739598 0.00045523
-0.00342528 -0.08834768 0.00048353
-0.00831463 -0.06961157 -0.00040763
-0.00197067 -0.05696673 0.00037250
0.00065811 -0.05696344 0.00043969
-0.00733319 -0.06557881 -0.00026628
0.00195843 -0.06321249 0.00042356
0.00006483 -0.08107095 0.00086723
-0.00184767 -0.07181205 0.00067576
-0.00015155 -0.07591033 0.00070235
0.00218931 -0.05703155 0.00017299
-0.00461803 -0.07343293 0.00038616
-0.00428759 -0.06735579 0.00047792
-0.00026450 -0.08816075 0.00105892
0.00063377 -0.05767711 0.00045146
0.00226906 -0.06555170 0.00045953
0.00290463 -0.06199956 0.00029230
0.00288074 -0.05668025 0.00014566
-0.00294871 -0.08556903 0.00069522
-0.00035826 -0.08892685 0.00107018
-0.00553589 -0.06468075 0.00005133
0.00204337 -0.06920863 0.00057751
-0.00857006 -0.08028594 -0.00091689
-0.00218253 -0.05782819 0.00037295
0.00019279 -0.07591888 0.00078795
-0.00872216 -0.07362387 -0.00073984
0.00150821 -0.07363697 0.00072491
-0.00347376 -0.08302808 0.00058712
-0.00846241 -0.08490210 -0.00101166
0.00187712 -0.05680116 0.00028893
-0.00886909 -0.06075290 -0.00019744
-0.00334047 -0.05571717 0.00065112
-0.00472006 -0.06575663 0.00044183
0.00082617 -0.06071100 0.00035280
-0.00400882 -0.08212920 0.00048601
-0.00639910 -0.06709740 -0.00013611
0.00063439 -0.06930654 0.00064458
-0.00632635 -0.08410395 -0.00035487
-0.00214007 -0.08877002 0.00075869
0.00162768 -0.06024010 0.00030140
-0.00101247 -0.08351451 0.00088763
0.00127091 -0.07559128 0.00078320
-0.00568849 -0.08442908 -0.00015733
-0.00775183 -0.08455645 -0.00065094
-0.00010109 -0.05907307 0.00053394
-0.00498172 -0.08405951 0.00004731
0.00158171 -0.06893898 0.00056200
-0.00671110 -0.07117984 -0.00001780
0.00280043 -0.06114668 0.00026304
-0.00610556 -0.08401900 -0.00028453
-0.00308906 -0.07737504 0.00060940
-0.00585787 -0.07765931 -0.00016953
-0.00380606 -0.05542943 0.00064643
0.00094389 -0.07827716 0.00085654
-0.00873786 -0.05937210 -0.00022183
-0.00890414 -0.06518623 -0.00044747
0.00157199 -0.06000243 0.00029823
-0.00559420 -0.07339977 -0.00006896
-0.00495507 -0.05997986 0.00019608
0.00117206 -0.07162242 0.00064194
-0.00170974 -0.08566587 0.00076300
0.00208731 -0.06884358 0.00056441
-0.00845557 -0.08519408 -0.00101689
-0.00370074 -0.06021878 0.00059292
0.00059780 -0.06362871 0.00054235
0.00281339 -0.06276916 0.00032540
-0.00134271 -0.05803281 0.00037521
-0.00132124 -0.07437620 0.00072443
0.00081631 -0.06221348 0.00038685
-0.00872025 -0.07370935 -0.00074242
-0.00908048 -0.05600918 -0.00004382
0.00007702 -0.08537059 0.00101253
-0.00067735 -0.06780900 0.00065390
-0.00883712 -0.06512533 -0.00046314
-0.00576071 -0.08330217 -0.00017599
-0.00047897 -0.07401125 0.00074229
-0.00852779 -0.08210406 -0.00095694
-0.00270527 -0.07149171 0.00062218
-0.00298997 -0.06464952 0.00034864
-0.00694311 -0.07595856 -0.00018411
-0.00866685 -0.07607431 -0.00081049
-0.00751254 -0.08747480 -0.00060972
-0.00244834 -0.06519951 0.00062298
-0.00047591 -0.06751627 0.00064691
-0.00013268 -0.07865306 0.00083916
-0.00323757 -0.07073112 0.00034240
0.00104245 -0.07746840 0.00083528
-0.00482713 -0.05689151 0.00025558
0.00021736 -0.07031085 0.00067558
-0.00875136 -0.07231336 -0.00069942
-0.00577965 -0.06410162 0.00002446
-0.00694241 -0.07158584 -0.00034074
-0.00604420 -0.07647442 -0.00020547
-0.00456829 -0.07501110 0.00013629
-0.00745409 -0.05584501 0.00003906
-0.00760080 -0.06933645 -0.00042459
-0.00402242 -0.06991042 0.00049272
-0.00492232 -0.07292051 0.00007295
-0.00647201 -0.06338899 0.00022320
-0.00599878 -0.08223513 -0.00024158
-0.00629119 -0.07839564 -0.00003976
-0.00839952 -0.06420819 -0.00021837
-0.00404035 -0.06796796 0.00023599
0.00278112 -0.06304091 0.00033694
-0.00706056 -0.06867958 -0.00029856
0.00019990 -0.08382752 0.00098132
-0.00618632 -0.07031448 0.00012082
-0.00487781 -0.05688312 0.00056945
-0.00674563 -0.08207792 -0.00023274
-0.00293955 -0.08776468 0.00058105
-0.00045403 -0.07494253 0.00065794
0.00207752 -0.06828991 0.00055155
0.00316239 -0.05885704 0.00015558
-0.00252799 -0.06780358 0.00062328
0.00258172 -0.06471650 0.00040634
-0.00688593 -0.08465027 -0.00031912
-0.00594322 -0.07368804 -0.00014960
-0.00702483 -0.07864045 -0.00026377
-0.00114392 -0.06771948 0.00065606
-0.00726038 -0.08429854 -0.00066178
0.00262647 -0.06377088 0.00037694
-0.00544707 -0.06085856 0.00012708
-0.00648171 -0.07010273 -0.00021142
-0.00575498 -0.07218742 0.00018142
0.00039475 -0.05784955 0.00047759
-0.00884965 -0.06695181 -0.00052719
-0.00669695 -0.07599895 -0.00036551
-0.00053764 -0.08637000 0.00098954
-0.00297676 -0.08389385 0.00051129
-0.00486735 -0.06571723 0.00013582
-0.00797801 -0.05612534 -0.00002089
0.00334818 -0.05823460 0.00012127
-0.00467287 -0.08701536 0.00035438
0.00105643 -0.05561940 0.00023170
-0.00380472 -0.06864828 0.00026600
-0.00295346 -0.08161608 0.00065621
-0.00220258 -0.08562449 0.00080129
-0.00111452 -0.08743382 0.00090091
-0.00152697 -0.06922564 0.00066525
-0.00346928 -0.06423041 0.00057516
-0.00056630 -0.06813711 0.00051138
-0.00167817 -0.08143537 0.00079667
-0.00098197 -0.08584497 0.00087733
-0.00038679 -0.06903922 0.00066584
-0.00352481 -0.08267385 0.00057613
-0.00301162 -0.06715220 0.00035315
-0.00684137 -0.08149377 -0.00025548
-0.00102961 -0.05676141 0.00035996
-0.00468571 -0.06939721 0.00013438
-0.00460490 -0.08647547 0.00036975
-0.00386376 -0.08574586 0.00034624
-0.00249283 -0.05831245 0.00063405
-0.00771017 -0.08042773 -0.00053803
-0.00174361 -0.08816987 0.00081613
-0.00287383 -0.08703247 0.00058186
-0.00367579 -0.08824890 0.00059068
-0.00891258 -0.06477530 -0.00043129
-0.00712394 -0.08032161 -0.00032918
-0.00404273 -0.07858345 0.00024885
-0.00122143 -0.06104231 0.00040054
-0.00421497 -0.07075126 0.00046342
-0.00250586 -0.07810259 0.00050698
-0.00281440 -0.06262775 0.00035773
-0.00423239 -0.08353053 0.00023767
0.00076251 -0.07976386 0.00089377
-0.00838431 -0.07470472 -0.00061620
-0.00506851 -0.06012234 0.00049005
-0.00881469 -0.06942086 -0.00060370
-0.00181202 -0.06473616 0.00063424
-0.00544858 -0.05945879 0.00046347
-0.00555433 -0.08295796 -0.00011460
-0.00630556 -0.07864536 -0.00004733
-0.00760359 -0.07719252 -0.00062772
-0.00776900 -0.08649037 -0.00070010
-0.00086055 -0.07750459 0.00068422
-0.00781433 -0.05767137 -0.00006637
-0.00489425 -0.08096274 0.00006399
0.00318405 -0.05963256 0.00018653
-0.00260466 -0.07624356 0.00065563
-0.00260863 -0.08499447 0.00073897
-0.00379186 -0.06075257 0.00029383
-0.00892657 -0.06408941 -0.00040390
0.00122846 -0.06433424 0.00051016
-0.00664448 -0.08032734 -0.00041423
-0.00052206 -0.08036554 0.00085787
0.00239890 -0.06624682 0.00046709
-0.00864640 -0.07697109 -0.00083474
0.00051818 -0.06785687 0.00052477
0.00051860 -0.08176062 0.00093998
0.00231009 -0.06679315 0.00049276
-0.00545526 -0.08419126 0.00014516
-0.00477158 -0.06571198 0.00014932
-0.00738592 -0.08184535 -0.00066102
-0.00859860 -0.07905183 -0.00088768
0.00142683 -0.06350049 0.00047685
-0.00016121 -0.08731690 0.00104578
-0.00036234 -0.07838389 0.00082525
-0.00236630 -0.05993935 0.00062849
-0.00523575 -0.07405776 0.00026626
0.00064055 -0.06760840 0.00061088
-0.00589392 -0.08171814 0.00003564
0.00179517 -0.06546836 0.00044826
-0.00256781 -0.07152376 0.00063240
-0.00180651 -0.05624498 0.00062454
0.00262160 -0.06438190 0.00039272
-0.00057332 -0.05702450 0.00055425
-0.00524565 -0.06526592 0.00008617
-0.00369544 -0.08340348 0.00035914
0.00044861 -0.05570005 0.00044783
0.00059363 -0.06053547 0.00049469
-0.00890367 -0.06520861 -0.00044835
-0.00361297 -0.06689932 0.00029027
-0.00267860 -0.08297061 0.00055138
0.00267529 -0.05683716 0.00017940
0.00168277 -0.05864212 0.00025554
-0.00097748 -0.06178198 0.00040946
-0.00244405 -0.08516674 0.00063009
-0.00721024 -0.05977776 -0.00006996
-0.00359009 -0.08644364 0.00059199
-0.00667531 -0.07418641 -0.00032938
0.00051842 -0.06957966 0.00056831
-0.00598984 -0.06442876 0.00027978
-0.00617815 -0.05726961 0.00012381
-0.00428671 -0.06183227 0.00053556
0.00188397 -0.06420036 0.00045468
-0.00112994 -0.07902453 0.00069137
-0.00828274 -0.07039077 -0.00042645
-0.00861529 -0.07832772 -0.00086979
-0.00056025 -0.08065288 0.00086164
-0.00187184 -0.06320131 0.00062908
-0.00377777 -0.07403343 0.00027786
0.00078769 -0.06372785 0.00053082
-0.00252493 -0.08368324 0.00073455
-0.00763878 -0.07010502 -0.00022841
0.00051803 -0.07227976 0.00064061
-0.00026088 -0.06209137 0.00040991
0.00031406 -0.08343337 0.00097536
0.00160506 -0.07066461 0.00064111
-0.00337158 -0.07939607 0.00058175
-0.00113016 -0.07886432 0.00079738
-0.00590780 -0.08265392 0.00002378
-0.00312972 -0.08196206 0.00045604
0.00123407 -0.05638087 0.00036428
-0.00787312 -0.06824541 -0.00044468
-0.00632814 -0.05865469 0.00007123
0.00051150 -0.07061376 0.00067470
-0.00874299 -0.07269047 -0.00071124
0.00052322 -0.08172281 0.00093915
-0.00175212 -0.08564226 0.00075575
-0.00764533 -0.06136999 0.00006760
-0.00311591 -0.06595060 0.00034030
-0.00749898 -0.07320617 -0.00050597
0.00106410 -0.06271503 0.00049117
-0.00222501 -0.06961492 0.00043974
-0.00855159 -0.07627200 -0.00074179
-0.00086063 -0.06585790 0.00063585
-0.00553225 -0.08729749 -0.00010950
-0.00599523 -0.07453272 0.00009283
-0.00290525 -0.07306320 0.00039874
-0.00734321 -0.06138804 0.00012586
0.00096360 -0.07244894 0.00066142
-0.00666104 -0.07701138 -0.00012292
-0.00598296 -0.07074198 0.00015639
-0.00293014 -0.07418418 0.00040486
-0.00792490 -0.05737928 -0.00006635
0.00088847 -0.07873165 0.00086818
-0.00230004 -0.07608305 0.00050682
-0.00222587 -0.05992278 0.00062817
0.00022736 -0.08361107 0.00097719
-0.00734922 -0.08678810 -0.00072844
-0.00591538 -0.07019880 0.00017984
0.00197715 -0.05679535 0.00027543
-0.00898404 -0.06119884 -0.00028297
0.00166227 -0.07236541 0.00068476
-0.00193355 -0.07151550 0.00066951
-0.00000619 -0.07260268 0.00062747
-0.00738687 -0.08467367 -0.00070936
0.00237597 -0.05789427 0.00018333
-0.00394725 -0.06854928 0.00050864
-0.00557074 -0.06917087 -0.00001760
-0.00734071 -0.08297909 -0.00045754
-0.00813814 -0.08237201 -0.00089502
-0.00754125 -0.08381192 -0.00074505
-0.00873216 -0.06840873 -0.00058264
0.00085465 -0.07900886 0.00087516
-0.00860196 -0.07553224 -0.00080524
-0.00626988 -0.06375649 0.00024861
-0.00049863 -0.08851566 0.00103120
-0.00226795 -0.06907168 0.00063968
-0.00232019 -0.07496787 0.00067128
-0.00540385 -0.07078228 0.00027105
-0.00425418 -0.06849660 0.00020476
-0.00746170 -0.08103723 -0.00066895
-0.00729623 -0.05949818 0.00020092
-0.00798485 -0.05993844 0.00005499
-0.00082472 -0.06301275 0.00042563
-0.00183282 -0.05938041 0.00062321
-0.00874231 -0.07272091 -0.00071219
0.00122429 -0.07597463 0.00079415
0.00145562 -0.07407049 0.00073820
-0.00883640 -0.06841111 -0.00056818
0.00030863 -0.06113376 0.00038051
-0.00277968 -0.07462401 0.00062909
-0.00115452 -0.07871657 0.00068210
0.00092094 -0.07846534 0.00086139
-0.00672352 -0.06496074 -0.00014497
-0.00547328 -0.07095155 -0.00001955
0.00003519 -0.06848174 0.00064846
-0.00212915 -0.07597740 0.00069460
-0.00880848 -0.06919400 -0.00060565
0.00273063 -0.06050564 0.00027088
-0.00389846 -0.08769477 0.00036054
0.00163566 -0.06319269 0.00038359
-0.00708616 -0.06579624 0.00003637
-0.00211119 -0.07621981 0.00053145
-0.00763363 -0.08107565 -0.00072083
-0.00415627 -0.08504036 0.00026847
-0.00233612 -0.07484152 0.00066908
-0.00680153 -0.08415004 -0.00028191
-0.00325681 -0.08864501 0.00052685
-0.00579448 -0.08018479 0.00007698
-0.00148630 -0.06562123 0.00063980
-0.00129709 -0.07886666 0.00078728
-0.00851671 -0.07851097 -0.00080647
-0.00030389 -0.06688009 0.00049402
-0.00484199 -0.08697899 0.00009966
0.00199634 -0.06712259 0.00052326
-0.00068006 -0.05585392 0.00055653
-0.00575087 -0.06804073 0.00024935
-0.00878680 -0.07070403 -0.00064726
-0.00908974 -0.05548165 -0.00001794
-0.00400354 -0.07782544 0.00047821
-0.00081809 -0.06639685 0.00064046
-0.00094383 -0.08144110 0.00076814
-0.00699140 -0.08121528 -0.00030107
-0.00508479 -0.06699123 0.00037580
0.00352306 -0.05673836 0.00004913
-0.00345560 -0.05836629 0.00033002
-0.00694138 -0.07052214 -0.00031716
-0.00385334 -0.06222124 0.00028008
-0.00819100 -0.06058736 -0.00022199
-0.00470811 -0.08410075 0.00033986
-0.00151281 -0.07975580 0.00078562
-0.00431817 -0.08709838 0.00044142
-0.00639389 -0.06883054 -0.00016946
-0.00872142 -0.07365684 -0.00074084
-0.00565577 -0.05817991 0.00047052
-0.00152032 -0.08687492 0.00090264
-0.00451412 -0.08585473 0.00038986
-0.00309035 -0.08734609 0.00054218
-0.00524747 -0.07271110 0.00000965
-0.00489358 -0.08114636 0.00006439
-0.00707532 -0.06242169 0.00014203
-0.00052486 -0.08599941 0.00094727
-0.00852982 -0.07671455 -0.00083125
0.00179055 -0.05848384 0.00024392
0.00076110 -0.07264617 0.00071379
-0.00081146 -0.06710609 0.00064777
-0.00175406 -0.07817768 0.00060509
0.00051190 -0.08181544 0.00094119
-0.00860625 -0.07330145 -0.00065294
-0.00036548 -0.08898583 0.00107102
0.00078017 -0.06187918 0.00049984
0.00017252 -0.05754058 0.00032334
-0.00421133 -0.08144769 0.00044475
-0.00030409 -0.05710682 0.00053349
-0.00229416 -0.06068159 0.00037778
-0.00770283 -0.08136049 -0.00074720
-0.00849258 -0.06406963 -0.00023791
-0.00348329 -0.08689602 0.00061627
-0.00424744 -0.07828250 0.00043563
-0.00566160 -0.07923190 0.00012064
-0.00687073 -0.07524054 -0.00039668
-0.00654944 -0.06488334 -0.00011393
-0.00621426 -0.06932910 -0.00014317
-0.00840555 -0.06159277 -0.00010844
-0.00808377 -0.07322263 -0.00063890
-0.00364973 -0.06174587 0.00029979
-0.00291121 -0.08622899 0.00056072
0.00074423 -0.07419790 0.00070624
-0.00612871 -0.08552510 -0.00006742
-0.00393953 -0.06733665 0.00025063
-0.00197576 -0.07400059 0.00068741
-0.00215641 -0.05567653 0.00063875
0.00154531 -0.07126561 0.00063973
0.00063841 -0.06891314 0.00055288
-0.00107225 -0.08140158 0.00084390
-0.00707787 -0.07202938 -0.00013127
0.00003668 -0.06283694 0.00041862
-0.00264407 -0.07595707 0.00064988
-0.00428451 -0.06869544 0.00046767
-0.00886737 -0.06695158 -0.00051492
-0.00067139 -0.07085187 0.00055830
-0.00855687 -0.06156348 -0.00030102
-0.00623384 -0.05812622 0.00040398
0.00273962 -0.06339023 0.00035166
0.00018983 -0.06328337 0.00042480
-0.00432174 -0.08008785 0.00042147
-0.00283797 -0.05759598 0.00035881
0.00332032 -0.05847233 0.00013251
-0.00011777 -0.06396701 0.00058947
-0.00757157 -0.08436154 -0.00076463
0.00081025 -0.07937274 0.00088421
0.00058601 -0.08120905 0.00092765
-0.00272493 -0.05708481 0.00064143
0.00202739 -0.06820792 0.00053828
-0.00870829 -0.07424225 -0.00075828
-0.00219571 -0.06872260 0.00043368
0.00050764 -0.05561950 0.00027220
-0.00040074 -0.08713722 0.00100131
0.00000393 -0.08449391 0.00097056
-0.00564168 -0.07256479 -0.00007075
-0.00795004 -0.06585776 -0.00016661
0.00023686 -0.07042210 0.00058293
-0.00168207 -0.06492735 0.00063570
-0.00535340 -0.06840748 0.00003045
0.00220534 -0.05876988 0.00022265
-0.00645578 -0.07817469 -0.00033332
-0.00862638 -0.06377376 -0.00039725
-0.00852746 -0.08211827 -0.00095724
-0.00227819 -0.07327654 0.00047392
-0.00136829 -0.07515306 0.00073206
-0.00019932 -0.06764984 0.00064217
-0.00192491 -0.07076345 0.00047706
-0.00706212 -0.08294507 -0.00035563
-0.00228402 -0.08897115 0.00073580
0.00173914 -0.07173000 0.00066404
-0.00873981 -0.07283328 -0.00071568
-0.00722232 -0.07401794 -0.00022061
-0.00338138 -0.07346420 0.00056220
-0.00187415 -0.08071046 0.00076905
-0.00195335 -0.08846960 0.00078614
-0.00122995 -0.06127352 0.00061188
-0.00205623 -0.05750541 0.00037351
-0.00589453 -0.07735439 0.00008027
0.00047301 -0.07823446 0.00084728
-0.00897830 -0.06149334 -0.00029570
-0.00581411 -0.07224948 0.00016789
-0.00580331 -0.08249224 -0.00018541
-0.00373950 -0.07851042 0.00030775
-0.00377413 -0.07049442 0.00027055
-0.00485876 -0.05932655 0.00021526
-0.00411734 -0.06609215 0.00050731
-0.00866139 -0.07631429 -0.00081707
-0.00629389 -0.08553658 -0.00035391
0.00032465 -0.08205315 0.00092659
-0.00318746 -0.07943914 0.00060812
-0.00886512 -0.06295635 -0.00037767
-0.00883245 -0.06859568 -0.00057475
0.00265069 -0.06413771 0.00038271
0.00056740 -0.08136138 0.00093109
-0.00319964 -0.07053097 0.00057911
-0.00055855 -0.06047215 0.00057698
-0.00537756 -0.06091703 0.00013432
-0.00774343 -0.07355704 -0.00057198
-0.00876573 -0.06314536 -0.00038286
0.00092864 -0.06082478 0.00046947
-0.00017988 -0.08746948 0.00104821
-0.00264522 -0.07063379 0.00062370
-0.00577843 -0.08349279 0.00005576
-0.00065223 -0.06007817 0.00057926
-0.00157910 -0.08550124 0.00077959
0.00172177 -0.05884365 0.00034975
0.00175065 -0.07163479 0.00066090
-0.00227081 -0.08379962 0.00076777
-0.00101023 -0.07387412 0.00072865
-0.00078492 -0.08237554 0.00081061
-0.00785247 -0.07062740 -0.00051333
-0.00257464 -0.06595599 0.00038492
-0.00070953 -0.08848398 0.00102399
-0.00177128 -0.08181437 0.00067160
0.00037742 -0.07522314 0.00077436
-0.00786661 -0.08819717 -0.00093092
-0.00159628 -0.08081757 0.00079458
-0.00816910 -0.06741413 -0.00028234
-0.00352784 -0.07192454 0.00030860
-0.00181236 -0.07936998 0.00075697
-0.00412573 -0.08745717 0.00048774
-0.00192628 -0.08009946 0.00061798
0.00029369 -0.06288137 0.00041500
-0.00057689 -0.05754503 0.00035445
-0.00714502 -0.08371207 -0.00039875
0.00199036 -0.06964876 0.00059311
0.00152642 -0.06042348 0.00040345
-0.00033498 -0.08765652 0.00102846
-0.00673228 -0.07169100 -0.00003452
-0.00191642 -0.07415766 0.00052279
-0.00021348 -0.05776187 0.00053113
-0.00687284 -0.07250604 -0.00008878
-0.00512345 -0.07364165 0.00029246
-0.00704750 -0.07383202 -0.00016661
-0.00521649 -0.08514457 0.00020901
-0.00861866 -0.07818100 -0.00086609
-0.00054253 -0.06156084 0.00058523
0.00132057 -0.05773956 0.00025807
-0.00142215 -0.08245302 0.00073233
-0.00264435 -0.05927897 0.00036335
-0.00522536 -0.08447869 0.00020776
-0.00135480 -0.07693756 0.00062539
-0.00687931 -0.06396805 -0.00014527
-0.00878282 -0.07088565 -0.00065329
-0.00655739 -0.06466593 -0.00011016
-0.00192242 -0.05897193 0.00037983
-0.00675929 -0.06896544 -0.00024486
0.00343769 -0.05746961 0.00008468
0.00316957 -0.05691364 0.00011001
-0.00468224 -0.07133832 0.00039039
-0.00288513 -0.08114158 0.00048893
-0.00623030 -0.07791180 -0.00026939
0.00354106 -0.05658395 0.00004155
-0.00660622 -0.07994673 -0.00039823
0.00133396 -0.05977098 0.00041102
-0.00331824 -0.05760557 0.00063210
0.00090619 -0.06173296 0.00037265
-0.00816764 -0.05910384 -0.00016041
-0.00241635 -0.07302984 0.00065088
0.00255407 -0.06200444 0.00033285
0.00000919 -0.06391429 0.00058229
-0.00339689 -0.07329557 0.00056025
-0.00423048 -0.07788391 0.00043892
-0.00197238 -0.06978712 0.00065602
-0.00449145 -0.06528922 0.00047461
-0.00874824 -0.05533431 -0.00003910
0.00322048 -0.05932278 0.00017225
-0.00339010 -0.07955908 0.00038134
-0.00341708 -0.06913447 0.00031504
-0.00737667 -0.06119356 0.00012632
-0.00055184 -0.05670845 0.00034421
-0.00342265 -0.06722875 0.00056505
-0.00392001 -0.06326878 0.00026819
-0.00676418 -0.07989354 -0.00020409
-0.00016024 -0.06168591 0.00056498
-0.00729568 -0.08068146 -0.00061278
-0.00870775 -0.07426591 -0.00075898
0.00150576 -0.07207853 0.00068340
-0.00164477 -0.08091250 0.00079193
-0.00213490 -0.07713349 0.00070514
-0.00258766 -0.07330409 0.00063926
-0.00874134 -0.07276430 -0.00071354
-0.00299272 -0.07439078 0.00039813
-0.00421749 -0.05616054 0.00062106
-0.00675547 -0.06042896 0.00026035
-0.00704508 -0.05961740 0.00023921
0.00007133 -0.08228722 0.00093313
0.00154820 -0.07330712 0.00071466
-0.00727800 -0.08044886 -0.00060333
-0.00863698 -0.06256075 -0.00034935
0.00120282 -0.06927685 0.00056958
0.00083247 -0.07004572 0.00058678
-0.00773383 -0.07028024 -0.00047877
-0.00817900 -0.05692457 -0.00007206
-0.00228467 -0.08192350 0.00074272
-0.00056883 -0.08589880 0.00093799
-0.00434073 -0.08586706 0.00022901
0.00042751 -0.07253231 0.00064409
-0.00839274 -0.08787598 -0.00106064
0.00104123 -0.05669635 0.00039252
-0.00288880 -0.08686458 0.00071947
-0.00682217 -0.07502055 -0.00013003
-0.00892743 -0.06404682 -0.00040218
0.00285163 -0.05740511 0.00012866
-0.00077127 -0.05639114 0.00034893
-0.00861409 -0.07837994 -0.00087109
-0.00596224 -0.08849255 -0.00002913
0.00145108 -0.07410789 0.00073934
-0.00359224 -0.05823244 0.00032342
0.00040481 -0.06856835 0.00063834
-0.00883798 -0.06833718 -0.00056553
0.00032168 -0.07029224 0.00067293
-0.00381234 -0.08283682 0.00052600
-0.00511125 -0.07750695 0.00001446
-0.00013971 -0.08511077 0.00097213
-0.00606200 -0.08384391 -0.00026998
-0.00770651 -0.07575371 -0.00061973
-0.00581808 -0.07894892 0.00008255
0.00092536 -0.06148739 0.00048097
-0.00141572 -0.06856603 0.00048311
-0.00710052 -0.08284987 -0.00036769
0.00193374 -0.06098904 0.00037270
-0.00839878 -0.08761822 -0.00105677
-0.00216671 -0.07621776 0.00052484
-0.00844351 -0.08570915 -0.00102589
-0.00748234 -0.05664293 0.00027732
-0.00332767 -0.06003748 0.00032943
-0.00759409 -0.08417110 -0.00057888
-0.00309363 -0.08109652 0.00063243
-0.00908444 -0.05578438 -0.00003283
-0.00220610 -0.08826371 0.00073526
-0.00656740 -0.08280656 -0.00041956
-0.00296755 -0.07203420 0.00038324
-0.00738676 -0.06194736 0.00009808
-0.00717391 -0.08673131 -0.00045888
0.00009533 -0.05963581 0.00036082
-0.00199376 -0.06737754 0.00064232
-0.00459588 -0.06019810 0.00053255
-0.00570595 -0.07526701 0.00015116
-0.00387817 -0.08456350 0.00052264
-0.00614968 -0.08101865 -0.00003193
-0.00054374 -0.08812546 0.00103222
0.00056879 -0.08109695 0.00092622
0.00224738 -0.05617226 0.00022465
-0.00251346 -0.07536021 0.00065796
0.00054445 -0.06332582 0.00041913
-0.00570532 -0.06538867 0.00001391
-0.00331298 -0.08692062 0.00048738
-0.00820010 -0.07783510 -0.00064966
0.00165332 -0.07172836 0.00065876
-0.00858675 -0.06617421 -0.00035540
-0.00810407 -0.08847285 -0.00089867
-0.00901655 -0.05663302 -0.00003659
-0.00768581 -0.06808866 -0.00017660
-0.00048669 -0.08870994 0.00105310
-0.00737837 -0.06326991 -0.00020432
-0.00227833 -0.05741988 0.00063512
0.00340163 -0.05777806 0.00009951
-0.00730818 -0.07371743 -0.00047305
0.00183979 -0.07089703 0.00063621
-0.00191609 -0.08466024 0.00070844
-0.00673088 -0.07113444 -0.00002159
-0.00131031 -0.08039113 0.00070093
-0.00287177 -0.05560964 0.00065297
-0.00152905 -0.08270780 0.00072357
0.00060313 -0.07944503 0.00088235
-0.00829438 -0.06766823 -0.00032773
-0.00320686 -0.08279527 0.00045207
-0.00877914 -0.07105387 -0.00065884
-0.00575320 -0.08765264 0.00004321
-0.00719386 -0.05630399 0.00033369
-0.00183853 -0.07870393 0.00074652
-0.00133953 -0.08601598 0.00082873
0.00231571 -0.05808476 0.00025926
-0.00138072 -0.07645020 0.00061356
-0.00823131 -0.05679664 0.00014204
-0.00057731 -0.07080680 0.00069221
-0.00692317 -0.06459405 -0.00016906
-0.00587284 -0.07961644 0.00006118
-0.00735647 -0.08390857 -0.00068706
-0.00198064 -0.08858488 0.00078387
-0.00886423 -0.06671046 -0.00049175
-0.00530814 -0.08796787 0.00018062
-0.00030920 -0.07525939 0.00076696
0.00016186 -0.07265218 0.00072059
0.00118744 -0.07627757 0.00080269
-0.00004157 -0.07685027 0.00080361
-0.00137118 -0.08097704 0.00081486
-0.00648662 -0.06017608 0.00030989
-0.00397327 -0.08493815 0.00050563
-0.00811313 -0.07889363 -0.00080273
-0.00593250 -0.08744519 -0.00001452
0.00152479 -0.07350019 0.00072068
-0.00141836 -0.08270167 0.00083915
0.00117027 -0.07641865 0.00080663
0.00090675 -0.06221438 0.00049511
-0.00841460 -0.07531919 -0.00064945
-0.00857640 -0.06203397 -0.00017157
-0.00072649 -0.07612105 0.00066468
0.00259463 -0.05646338 0.00012066
-0.00312171 -0.08378199 0.00065038
0.00044236 -0.05908995 0.00033704
-0.00592992 -0.06579316 -0.00002940
-0.00899291 -0.06074125 -0.00026302
0.00315019 -0.05972815 0.00019699
-0.00333492 -0.07768041 0.00057907
-0.00674543 -0.07762580 -0.00015870
0.00245180 -0.06185849 0.00033958
-0.00592555 -0.05598948 0.00049962
-0.00907769 -0.05616706 -0.00005151
-0.00566785 -0.08062211 -0.00013856
-0.00597139 -0.06236427 0.00032977
-0.00645763 -0.06057743 0.00000530
-0.00411040 -0.06517304 0.00051590
-0.00637388 -0.06351977 0.00023679
-0.00441864 -0.08622539 0.00021155
0.00228825 -0.06164261 0.00030742
0.00143115 -0.05731306 0.00024019
-0.00471908 -0.07225430 0.00011440
-0.00513879 -0.05608351 0.00024558
-0.00640724 -0.08313931 -0.00037265
-0.00308772 -0.07771614 0.00041485
-0.00090097 -0.07281372 0.00071684
0.00198406 -0.06386911 0.00039215
-0.00282976 -0.08419390 0.00069840
-0.00071473 -0.06793961 0.00050332
-0.00554349 -0.07160620 -0.00004036
-0.00700706 -0.06226962 0.00015956
-0.00868770 -0.05865725 -0.00004323
-0.00419578 -0.07614258 0.00044693
0.00236352 -0.05829677 0.00025815
-0.00699226 -0.08586255 -0.00059266
-0.00847406 -0.06935801 -0.00058675
-0.00306664 -0.07862757 0.00061929
0.00161093 -0.07278940 0.00069834
-0.00446487 -0.07474239 0.00040552
0.00245488 -0.06577883 0.00044878
-0.00481546 -0.08110232 0.00008383
-0.00900046 -0.06034888 -0.00024574
0.00001189 -0.07037279 0.00057504
-0.00193622 -0.07571262 0.00070603
-0.00488090 -0.05837716 0.00022752
-0.00859794 -0.07908040 -0.00088838
-0.00744406 -0.06136757 0.00010730
-0.00834573 -0.08297107 -0.00086924
-0.00503159 -0.07041289 0.00006826
-0.00001681 -0.07251110 0.00071878
-0.00842718 -0.07807936 -0.00085264
-0.00834829 -0.07159799 -0.00064122
0.00232765 -0.06487937 0.00041597
-0.00402157 -0.07046326 0.00023464
-0.00815259 -0.08528835 -0.00084279
-0.00354310 -0.05731084 0.00062968
-0.00769112 -0.06724617 -0.00038002
-0.00616703 -0.08283982 -0.00029609
-0.00035219 -0.06337544 0.00043162
0.00092008 -0.07138326 0.00068112
-0.00552088 -0.06123414 0.00041672
-0.00084227 -0.08331894 0.00082838
-0.00622611 -0.06203347 0.00029909
-0.00549975 -0.08441667 0.00013170
-0.00522787 -0.08533698 -0.00001950
-0.00834228 -0.08636245 -0.00096809
-0.00560477 -0.06410577 0.00034680
-0.00010581 -0.08565273 0.00099475
0.00237251 -0.06646737 0.00047564
0.00136150 -0.06268986 0.00046539
-0.00541034 -0.08652215 0.00015167
-0.00166568 -0.07474787 0.00055633
-0.00364920 -0.07737382 0.00031676
-0.00498046 -0.08452479 0.00027232
-0.00371045 -0.07321224 0.00052218
-0.00056398 -0.06104659 0.00039812
-0.00697755 -0.07981314 -0.00050421
-0.00598445 -0.07660205 0.00006675
0.00125396 -0.05900412 0.00040574
0.00009826 -0.06074250 0.00037966
-0.00149792 -0.05585258 0.00036438
-0.00768937 -0.06489003 -0.00006899
0.00029700 -0.06951340 0.00065903
-0.00249570 -0.06452809 0.00038329
-0.00906234 -0.05702566 -0.00009288
-0.00210225 -0.08553380 0.00081246
-0.00718771 -0.08633428 -0.00045816
0.00138841 -0.07097450 0.00062629
0.00179795 -0.06429872 0.00041147
-0.00478209 -0.06816536 0.00012723
-0.00477900 -0.08170549 0.00032365
-0.00186189 -0.05774815 0.00037531
-0.00783891 -0.08597277 -0.00088131
-0.00444871 -0.05540956 0.00030420
-0.00195920 -0.06295567 0.00040106
-0.00533180 -0.07532926 0.00023410
-0.00155740 -0.08869057 0.00093283
0.00120347 -0.07190918 0.00068672
0.00321620 -0.05935923 0.00017393
-0.00839152 -0.07601170 -0.00078630
-0.00533961 -0.07849313 0.00020617
-0.00580176 -0.05560072 0.00052250
-0.00118895 -0.07728289 0.00064855
-0.00418028 -0.08665842 0.00027765
-0.00154762 -0.08890362 0.00093819
-0.00427608 -0.07236927 0.00019252
-0.00233838 -0.07826269 0.00053248
0.00047463 -0.07814495 0.00081240
-0.00511342 -0.06449689 0.00011499
-0.00311313 -0.08498340 0.00066300
-0.00780744 -0.08749981 -0.00089857
-0.00150303 -0.08643056 0.00089632
-0.00844597 -0.07832445 -0.00076657
-0.00391971 -0.07986093 0.00049565
-0.00705060 -0.07731037 -0.00048175
-0.00783326 -0.06068117 0.00005600
0.00128707 -0.07545827 0.00077937
-0.00845145 -0.07079202 -0.00049705
-0.00237615 -0.06929414 0.00042388
-0.00300660 -0.08046663 0.00063973
0.00071758 -0.06671357 0.00049677
-0.00442140 -0.06803165 0.00045566
-0.00897430 -0.06169767 -0.00030447
-0.00411202 -0.08299630 0.00046875
-0.00014526 -0.08718664 0.00104368
-0.00799197 -0.07341867 -0.00062456
-0.00610841 -0.06895474 -0.00011608
-0.00377096 -0.07872620 0.00030322
-0.00590795 -0.05852986 0.00012170
-0.00831381 -0.05600240 0.00016290
-0.00851197 -0.06829194 -0.00041914
-0.00795907 -0.05851671 -0.00011467
-0.00831755 -0.07980782 -0.00075893
-0.00390777 -0.05803938 0.00060773
-0.00898047 -0.06138258 -0.00029092
-0.00119874 -0.08491169 0.00089840
-0.00623905 -0.06128376 0.00031657
0.00522996 -0.07785927 0.00031512
0.00252657 -0.08816017 -0.00081133
0.00676654 -0.05600067 0.00046713
0.00081627 -0.06440684 0.00019445
0.00296485 -0.06740974 0.00042104
0.00309467 -0.07764154 -0.00014729
0.00098636 -0.08325908 -0.00097192
0.00995688 -0.06017944 0.00024490
-0.00079919 -0.07029989 -0.00061506
0.00522129 -0.06846784 0.00062015
0.00782741 -0.06857298 0.00065902
-0.00183709 -0.05961195 -0.00004365
0.00926842 -0.08565072 0.00094749
0.00615961 -0.07301869 0.00066696
0.00081384 -0.06145320 0.00032653
0.00030951 -0.07711274 -0.00072432
0.00260010 -0.06003860 0.00056217
0.00958486 -0.05888399 0.00023542
0.00041033 -0.07909442 -0.00087722
0.00901226 -0.08728722 0.00097672
0.00992540 -0.06739485 0.00053680
0.00067741 -0.06920646 -0.00008127
0.00549812 -0.08221438 0.00050550
0.00342777 -0.06354517 0.00055383
0.00072773 -0.06148297 0.00001365
0.00982956 -0.08193364 0.00095642
0.00925677 -0.06087858 0.00030560
0.00921139 -0.07763058 0.00084152
0.00650874 -0.06129545 0.00058480
0.00242059 -0.08299311 -0.00034964
0.00523163 -0.05777245 0.00037534
0.00712921 -0.05548782 0.00041546
0.00782852 -0.08308631 0.00082558
0.00982135 -0.08018597 0.00091327
-0.00079548 -0.06583885 -0.00041538
0.00283791 -0.07703280 0.00006929
0.00211220 -0.06637485 0.00003967
0.00170955 -0.07254282 -0.00000696
0.00078112 -0.05674887 0.00019063
0.00283590 -0.07910972 -0.00002126
0.00849844 -0.06588979 0.00048842
0.00391937 -0.08169493 0.00016691
0.00130091 -0.07672378 -0.00034924
0.00153995 -0.06208351 0.00009695
0.00113289 -0.06990333 -0.00001138
0.00837115 -0.05700552 0.00031243
-0.00065503 -0.06833895 -0.00052739
0.00254206 -0.07480958 0.00009001
0.00996322 -0.05803020 0.00014733
0.00640022 -0.08786439 0.00042394
-0.00090558 -0.06672231 -0.00047655
0.00807613 -0.06542884 0.00058353
0.00515925 -0.05788598 0.00037663
0.00714470 -0.06018749 0.00052482
0.00583013 -0.07042788 0.00044894
0.00404843 -0.05988386 0.00035691
0.00281003 -0.06410139 0.00019791
0.00588175 -0.08873969 0.00027584
0.00002527 -0.07054877 -0.00052998
0.00849596 -0.08295564 0.00080781
0.00090552 -0.05601225 0.00054701
0.00029056 -0.07822710 -0.00085511
0.00994212 -0.06397736 0.00040541
0.00157052 -0.06398025 0.00033499
-0.00172794 -0.06343172 -0.00035950
0.00989254 -0.07295646 0.00072403
-0.00253450 -0.05744885 -0.00008139
0.00911059 -0.07981460 0.00083363
0.00267442 -0.07519522 -0.00015806
-0.00079278 -0.06044099 -0.00013553
0.00512010 -0.07924677 0.00027235
0.00525940 -0.05556701 0.00035484
0.00111122 -0.06126047 0.00007107
0.00046114 -0.07946220 -0.00088634
0.00276537 -0.07051059 0.00029727
0.00084024 -0.07463232 -0.00036124
0.00758895 -0.05653083 0.00025795
0.00995166 -0.06165641 0.00030913
0.00635416 -0.07711548 0.00067623
0.00152480 -0.05624180 0.00058514
-0.00053178 -0.07080406 -0.00063640
0.00095405 -0.06597088 0.00014585
0.00831515 -0.07436857 0.00067084
0.00734051 -0.07313171 0.00072256
0.00749896 -0.06577267 0.00061639
0.00930635 -0.06158659 0.00037329
0.00983384 -0.05741125 0.00012473
0.00847235 -0.07399770 0.00067402
0.00461461 -0.07520348 0.00024580
0.00720383 -0.07902561 0.00061387
0.00576576 -0.08868752 0.00024495
-0.00030939 -0.07387213 -0.00073171
0.00884495 -0.05852967 0.00024043
0.00994070 -0.06429359 0.00041809
0.00230575 -0.07548409 0.00000224
0.00033440 -0.07177900 -0.00053399
0.00987156 -0.07609970 0.00081522
0.00098714 -0.06430389 0.00022892
0.00239662 -0.07872593 -0.00037518
-0.00101212 -0.06231118 -0.00004714
0.00774750 -0.07391464 0.00062517
0.00984512 -0.07982028 0.00090948
0.00996055 -0.05900005 0.00019196
0.00201328 -0.07956748 -0.00029085
0.00126075 -0.06455298 -0.00002894
0.00422086 -0.08228893 0.00022396
0.00070147 -0.07263951 -0.00027710
0.00596356 -0.07327061 0.00065273
0.00896989 -0.06413506 0.00043019
0.00803278 -0.08172111 0.00073585
0.00402458 -0.06030571 0.00035337
0.00981204 -0.08427383 0.00100281
-0.00252967 -0.05748520 -0.00008315
-0.00215198 -0.06031449 -0.00021573
0.00578674 -0.05662469 0.00056342
0.00987770 -0.07520138 0.00079024
0.00314415 -0.05607801 0.00035162
0.00598219 -0.07130489 0.00065665
0.00915553 -0.07169612 0.00065461
0.00601878 -0.08635060 0.00053776
0.00893482 -0.08521957 0.00089356
0.00733082 -0.07600380 0.00074677
0.00294522 -0.06103049 0.00027269
0.00995650 -0.06029375 0.00024995
0.00992541 -0.06739187 0.00053669
0.00399859 -0.08274764 0.00015047
0.00577969 -0.05810368 0.00058212
0.00391422 -0.07922850 0.00024816
0.00591852 -0.07708405 0.00043811
0.00434694 -0.08240042 0.00025187
0.00941670 -0.07119697 0.00068315
0.00990248 -0.07137803 0.00067425
-0.00071493 -0.07091567 -0.00063616
0.00548802 -0.08096536 0.00031977
0.00971403 -0.06979502 0.00061446
0.00978995 -0.08719914 0.00105257
0.00682324 -0.05992295 0.00037667
0.00486280 -0.08615577 0.00026998
0.00983557 -0.08112279 0.00093898
0.00334015 -0.06762706 0.00046365
0.00877166 -0.08734803 0.00088991
0.00591795 -0.07321160 0.00045473
0.00890196 -0.06591320 0.00055025
0.00592743 -0.07397658 0.00064770
0.00837198 -0.06348156 0.00051490
0.00966882 -0.06193246 0.00035142
0.00258486 -0.08291443 -0.00051723
-0.00000884 -0.07605622 -0.00079618
0.00895777 -0.07744903 0.00083050
0.00779160 -0.06341568 0.00043216
-0.00204277 -0.05765273 0.00005497
-0.00120893 -0.06729624 -0.00050625
0.00859068 -0.05981513 0.00030091
0.00995875 -0.05959781 0.00021897
-0.00087703 -0.06787612 -0.00041155
-0.00142749 -0.05891007 -0.00012697
0.00954425 -0.08786327 0.00103968
0.00816745 -0.08193411 0.00075511
0.00464349 -0.06178034 0.00062444
0.00191542 -0.06856131 -0.00006890
0.00550758 -0.07322957 0.00040508
0.00542149 -0.06319330 0.00040948
0.00199870 -0.06730985 0.00027744
0.00690710 -0.08389776 0.00071602
0.00515474 -0.08699249 0.00032280
0.00108119 -0.05882953 0.00015055
0.00863869 -0.06145948 0.00043220
0.00411821 -0.08664473 -0.00019106
-0.00187068 -0.06240852 -0.00030836
0.00466085 -0.08610313 -0.00000483
0.00919101 -0.06393980 0.00046735
-0.00052703 -0.06956270 -0.00057279
0.00798013 -0.08387375 0.00074259
0.00706845 -0.07647423 0.00073376
0.00988416 -0.07423904 0.00076252
0.00099425 -0.08331607 -0.00097308
-0.00098554 -0.06430342 -0.00017658
0.00653997 -0.05893081 0.00054495
0.00219655 -0.08256252 -0.00061989
0.00996395 -0.05774061 0.00013382
0.00797801 -0.08771947 0.00085565
-0.00031253 -0.06929247 -0.00034563
0.00078281 -0.05611239 0.00053314
0.00405926 -0.07714745 0.00009430
0.00182706 -0.06157252 0.00014734
0.00584595 -0.07821430 0.00041830
0.00420734 -0.08542778 0.00011127
0.00604561 -0.08275771 0.00059407
-0.00081100 -0.07021350 -0.00061207
0.00984977 -0.07918085 0.00089434
0.00585960 -0.06919035 0.00045055
-0.00040572 -0.06353451 -0.00023888
0.00184947 -0.08185990 -0.00048426
0.00917391 -0.07079394 0.00067770
0.00023544 -0.06866675 -0.00039168
-0.00117469 -0.06186525 -0.00025432
0.00217350 -0.06067436 0.00020874
0.00209506 -0.08138068 -0.00036851
-0.00017134 -0.05567295 0.00045694
0.00459033 -0.07367672 0.00026700
-0.00189748 -0.06164999 -0.00029710
0.00164199 -0.08254045 -0.00078683
0.00980753 -0.08487285 0.00101374
0.00419021 -0.06203242 0.00061298
0.00544509 -0.08002979 0.00032499
0.00324883 -0.06052904 0.00059159
0.00996698 -0.05638466 0.00006937
0.00983799 -0.08079507 0.00093173
0.00913541 -0.08345398 0.00089729
0.00039240 -0.06276960 -0.00008589
0.00268410 -0.05741400 0.00031428
0.00183112 -0.06958446 -0.00012336
-0.00156837 -0.05895779 0.00006086
0.00553064 -0.07916775 0.00055757
0.00145267 -0.08645204 -0.00100263
0.00346686 -0.06757345 0.00047992
0.00924020 -0.07824765 0.00085512
0.00717766 -0.07197872 0.00056289
-0.00105243 -0.05693092 0.00027707
0.00718041 -0.07353400 0.00057791
0.00455901 -0.05910982 0.00037584
0.00184499 -0.08156420 -0.00046718
0.00984610 -0.07968593 0.00090634
0.00241115 -0.06555552 0.00039975
0.00730037 -0.07352308 0.00058733
0.00497384 -0.05642495 0.00061021
0.00927252 -0.06226574 0.00040151
0.00897243 -0.05764008 0.00019786
0.00794673 -0.07971245 0.00070827
0.00942399 -0.08813522 0.00103039
0.00992373 -0.06770645 0.00054817
0.00299311 -0.07158856 0.00030281
0.00694331 -0.06556072 0.00063015
0.00161339 -0.08479868 -0.00078025
0.00878964 -0.06583092 0.00048519
0.00072659 -0.05641022 0.00019716
0.00592307 -0.06756908 0.00064896
0.00609206 -0.05885569 0.00037551
0.00652093 -0.08140425 0.00050995
0.00633048 -0.07429398 0.00050024
0.00733754 -0.05553138 0.00039235
0.00960053 -0.06645264 0.00050022
0.00627067 -0.08527515 0.00042759
0.00015962 -0.07727820 -0.00082999
0.00809182 -0.06164698 0.00037904
0.00741975 -0.07683276 0.00075762
0.00894071 -0.06695679 0.00057880
0.00988539 -0.07405315 0.00075705
0.00578806 -0.08710716 0.00028340
0.00776342 -0.07193750 0.00059813
0.00056464 -0.06807123 -0.00030032
0.00772106 -0.06034200 0.00035680
-0.00044323 -0.07289776 -0.00070127
-0.00205933 -0.06100542 -0.00024681
0.00150961 -0.07219377 -0.00029952
0.00856224 -0.08738433 0.00092749
0.00963071 -0.05943944 0.00025343
0.00994279 -0.06382584 0.00039930
