ply
format ascii 1.0
element vertex 1397
property float x
property float y
property float z
end_header
0.05905720 -0.03334508 0.00052209
0.05278116 -0.03214271 -0.00000529
0.04286528 -0.03141213 -0.00021768
0.06258255 -0.02825730 0.00079738
0.04990481 -0.02962863 0.00018494
0.05109415 -0.02553060 0.00047297
0.05580452 -0.03658853 -0.00063552
0.05733369 -0.03768481 -0.00058740
0.05154941 -0.02408995 0.00046136
0.06645981 -0.03085868 0.00091724
0.06338501 -0.03432450 0.00066150
0.07247925 -0.04024327 0.00026591
0.05672195 -0.03107730 0.00038155
0.05022633 -0.02026761 0.00026276
0.06018420 -0.03501738 0.00005734
0.05551712 -0.03108006 0.00059199
0.07366851 -0.03759496 0.00085744
0.07049489 -0.03943163 0.00044531
0.07131349 -0.03646180 0.00079630
0.05349130 -0.03151052 0.00044661
0.05486838 -0.02474658 0.00060235
0.06916070 -0.03351319 0.00097692
0.05451453 -0.03365283 -0.00014710
0.03976970 -0.02937384 0.00011416
0.06931485 -0.04276259 -0.00086620
0.04559809 -0.02133954 0.00034657
0.06827836 -0.03897786 0.00005388
0.06174200 -0.03077439 0.00066567
0.05509235 -0.03274580 0.00036135
0.06059564 -0.02810655 0.00070742
0.06742469 -0.04189313 -0.00084618
0.05267139 -0.03559705 -0.00046668
0.07033490 -0.03675517 0.00082900
0.05116970 -0.02643551 0.00069435
0.07015628 -0.04111451 -0.00000046
0.04943008 -0.03415363 -0.00051180
0.04573594 -0.01987897 0.00036997
0.05639445 -0.03163184 0.00057732
0.04592987 -0.02501568 0.00040029
0.05078097 -0.03064089 0.00042455
0.05909514 -0.03252211 0.00036244
0.06209264 -0.04041586 -0.00094609
0.05964516 -0.02932557 0.00063868
0.05263690 -0.02846656 0.00041230
0.06551955 -0.04201306 -0.00103269
0.06197073 -0.03988842 -0.00088165
0.04955854 -0.02875923 0.00058066
0.05140913 -0.02501484 0.00065547
0.06919701 -0.04220266 -0.00071316
0.06699776 -0.03156822 0.00093966
0.05240197 -0.03108510 0.00044623
0.06343139 -0.03931140 -0.00034322
0.07648095 -0.03728605 0.00116312
0.04199446 -0.02500521 0.00068843
0.04833378 -0.03398319 -0.00046664
0.06531637 -0.03926576 -0.00009772
0.05940154 -0.03678193 -0.00038607
0.05454558 -0.02596452 0.00053668
0.07251711 -0.04060265 0.00041537
0.05194291 -0.02161029 0.00035807
0.04910776 -0.02423067 0.00044277
0.04461558 -0.02983797 0.00025091
0.07177587 -0.03422744 0.00106739
0.07133661 -0.03394194 0.00105699
0.04762265 -0.02690276 0.00034831
0.05080200 -0.02463712 0.00064453
0.05352469 -0.02478041 0.00050297
0.05353241 -0.02239981 0.00042490
0.05939778 -0.03669786 -0.00036734
0.04678473 -0.02439299 0.00042219
0.05642793 -0.02427090 0.00055550
0.05774348 -0.03331488 0.00015373
0.04663441 -0.02491265 0.00069146
0.04958552 -0.03363881 -0.00021631
0.05428849 -0.03639167 -0.00053426
0.06162684 -0.03785992 -0.00042204
0.07414589 -0.03576804 0.00111920
0.04907240 -0.03246751 0.00001221
0.04749780 -0.02944331 0.00009811
0.05777345 -0.03532850 -0.00021603
0.06102766 -0.03849118 -0.00063570
0.05209163 -0.03167533 0.00002511
0.06832205 -0.04254687 -0.00092565
0.05648506 -0.02745279 0.00072247
0.05103257 -0.02078714 0.00030357
0.05011790 -0.02665504 0.00042880
0.07017368 -0.04301660 -0.00083065
0.04980275 -0.01999479 0.00024098
0.04499064 -0.03241263 -0.00031836
0.07065760 -0.03818515 0.00067620
0.06035064 -0.02712358 0.00070967
0.07166212 -0.03849713 0.00071223
0.07169642 -0.04056890 0.00008942
0.06717227 -0.04071395 -0.00028196
0.05111282 -0.02273114 0.00050323
0.06758440 -0.03481277 0.00069272
0.07009339 -0.04114407 -0.00027822
0.06724193 -0.03129659 0.00095065
0.06026977 -0.02883115 0.00067910
0.05682323 -0.02879487 0.00055066
0.05070942 -0.02057887 0.00028731
0.06816427 -0.03804722 0.00024511
0.05339015 -0.03595478 -0.00064839
0.05296659 -0.02472493 0.00049347
0.07308259 -0.03700958 0.00097422
0.05196087 -0.03537536 -0.00047628
0.06275187 -0.04072321 -0.00096376
0.06695682 -0.03549202 0.00056150
0.06001083 -0.03083662 0.00076114
0.06015667 -0.02824113 0.00068772
0.07015482 -0.03557487 0.00080521
0.04537220 -0.02940576 0.00001851
0.05320523 -0.02386212 0.00055874
0.05527974 -0.02736034 0.00071613
0.06737406 -0.03482476 0.00067575
0.05872997 -0.02915786 0.00060855
0.05575106 -0.02654757 0.00069337
0.05098218 -0.02075466 0.00030104
0.04753341 -0.02749074 0.00062356
0.06001967 -0.02737739 0.00069410
0.04250602 -0.03000884 -0.00013212
0.04931027 -0.03267359 -0.00001494
0.04892373 -0.02121475 0.00041082
0.04755163 -0.02705665 0.00064906
0.06716769 -0.04278088 -0.00106968
0.04669621 -0.02148338 0.00034603
0.06149796 -0.02755402 0.00075830
0.04298614 -0.02745536 0.00051756
0.05507657 -0.02869997 0.00071274
0.06703526 -0.03473571 0.00081983
0.06981468 -0.03583254 0.00074892
0.06800250 -0.03954642 -0.00011847
0.04248221 -0.03123161 -0.00019900
0.07388260 -0.04197572 0.00001454
0.07217967 -0.04511517 -0.00116361
0.05905462 -0.03384923 0.00016831
0.06098654 -0.03072476 0.00063159
0.06733681 -0.03450148 0.00070782
0.07613372 -0.03706032 0.00115704
0.07537724 -0.03735416 0.00104498
0.05329276 -0.03266082 -0.00005720
0.04696478 -0.03077178 -0.00010564
0.06242928 -0.03678148 -0.00008887
0.04371303 -0.02981935 0.00021291
0.05634559 -0.02536315 0.00063169
0.06959749 -0.03643946 0.00081449
0.04911260 -0.02846656 0.00059159
0.07661988 -0.03915312 0.00100708
0.05726044 -0.02906339 0.00055546
0.06508683 -0.03739740 0.00005275
0.06721314 -0.04228891 -0.00097898
0.06375984 -0.04119305 -0.00098985
0.06279030 -0.04069970 -0.00097584
0.06339733 -0.03204774 0.00081914
0.07525369 -0.03728194 0.00104238
0.06167896 -0.03431900 0.00055879
0.04986934 -0.03096718 0.00033147
0.05230048 -0.03079986 0.00016272
0.04632640 -0.02694948 0.00030769
0.05952028 -0.03461997 0.00036315
0.03984798 -0.02878093 0.00023137
0.05873544 -0.03426123 0.00007219
0.05815925 -0.02539112 0.00062847
0.05133102 -0.02328798 0.00043308
0.06803594 -0.04318530 -0.00108795
0.04736682 -0.01842752 0.00011142
0.04608535 -0.03124019 0.00007358
0.06542848 -0.03795786 -0.00003492
0.04417217 -0.02558988 0.00034524
0.06361934 -0.03806920 0.00002014
0.04612175 -0.02603747 0.00036147
0.07419824 -0.03930149 0.00064940
0.05801330 -0.02529665 0.00062247
0.05505669 -0.03386835 -0.00014710
0.05695856 -0.02941946 0.00073045
0.07214868 -0.03446976 0.00107603
0.07260345 -0.04405467 -0.00081876
0.04522083 -0.02012796 0.00027279
0.07407187 -0.03980147 0.00054457
0.04270517 -0.03133668 -0.00020989
0.05467538 -0.02604411 0.00067609
0.05438442 -0.02903078 0.00068997
0.06444909 -0.03539654 0.00060096
0.06812042 -0.04238618 -0.00071066
0.06761593 -0.03992487 0.00000365
0.04886400 -0.02047691 0.00026980
0.06609650 -0.03454066 0.00061320
0.06782016 -0.03855501 0.00035280
0.04443197 -0.03192953 -0.00019435
0.06986284 -0.03693917 0.00077865
0.05757069 -0.03246720 0.00054523
0.04863759 -0.02817895 0.00028247
0.05471971 -0.02316665 0.00047974
0.05223008 -0.02958019 0.00030144
0.07408755 -0.03983355 0.00071654
0.06697104 -0.03334774 0.00089604
0.05845595 -0.02558319 0.00064059
0.05600042 -0.02683069 0.00057034
0.06619468 -0.03304102 0.00076358
0.04807037 -0.03035744 0.00033242
0.06342621 -0.03908214 -0.00053799
0.06660473 -0.03815101 0.00005188
0.05005103 -0.02115141 0.00031646
0.04055555 -0.02797959 0.00038250
0.05560138 -0.02892369 0.00049829
0.07010775 -0.03531102 0.00082986
0.07132357 -0.04151808 -0.00021580
0.04672260 -0.03226305 -0.00032896
0.05010025 -0.02091052 0.00034372
0.04314463 -0.02843623 0.00006607
0.05511552 -0.02989331 0.00040999
0.05206147 -0.02547642 0.00066907
0.04799244 -0.02666509 0.00037298
0.06364096 -0.02894387 0.00083405
0.06419181 -0.03786468 -0.00014943
0.05087582 -0.02516513 0.00066703
0.05900765 -0.03565436 0.00012151
0.06124009 -0.04001831 -0.00092251
0.04601218 -0.02864475 0.00013458
0.05242719 -0.02322062 0.00051970
0.03886319 -0.02952329 -0.00001460
0.06810354 -0.03918992 0.00024393
0.06352018 -0.02959048 0.00080326
0.04583991 -0.02302732 0.00040847
0.06376574 -0.04086587 -0.00082120
0.06787584 -0.04126415 -0.00035819
0.05060187 -0.03435431 -0.00031443
0.05757400 -0.02651352 0.00069066
0.06755491 -0.04005732 -0.00004002
0.07140749 -0.03547295 0.00098956
0.05868891 -0.03597483 0.00002085
0.05968904 -0.03434125 0.00013683
0.06439824 -0.04110586 -0.00081400
0.04807884 -0.02467793 0.00067739
0.05605758 -0.02403140 0.00053939
0.05302882 -0.02703390 0.00070359
0.05287412 -0.03611069 -0.00064816
0.05789211 -0.03399986 0.00034786
0.06056329 -0.02694819 0.00072340
0.06539675 -0.03118404 0.00083591
0.05256413 -0.02586160 0.00067985
0.05032115 -0.03281110 0.00002668
0.06544848 -0.04180581 -0.00092486
0.06763854 -0.03153908 0.00095946
0.05067790 -0.02065265 0.00030001
0.05663418 -0.02939249 0.00072475
0.06142258 -0.02768778 0.00076478
0.06462348 -0.04159553 -0.00101131
0.04515160 -0.02747602 0.00057054
0.06098070 -0.03439080 0.00023492
0.05623678 -0.02414728 0.00054721
0.06737878 -0.03973638 -0.00024494
0.05213423 -0.02518724 0.00065600
0.06082539 -0.03771282 -0.00019504
0.05768845 -0.02861082 0.00074817
0.06322740 -0.03741979 -0.00014961
0.06383256 -0.02971502 0.00085234
0.04407433 -0.03186986 -0.00021302
0.04878138 -0.02257347 0.00039372
0.05896584 -0.03079768 0.00073348
0.05310702 -0.02645609 0.00069497
0.06156780 -0.03417465 0.00031588
0.04458400 -0.03029294 0.00017108
0.04426545 -0.02220893 0.00063746
0.07286497 -0.03505309 0.00108872
0.06562722 -0.03199319 0.00088987
0.05197869 -0.02361298 0.00055953
0.05182903 -0.02562147 0.00048507
0.06078084 -0.02712095 0.00072816
0.04460532 -0.03223137 -0.00030048
0.07517307 -0.03643580 0.00113939
0.07282463 -0.04102267 0.00012207
0.05572442 -0.02721646 0.00055922
0.05727236 -0.03209083 0.00057178
0.06266876 -0.04068446 -0.00096156
0.05721431 -0.02477959 0.00058912
0.05223497 -0.03001211 0.00056006
0.04848381 -0.02352868 0.00042591
0.04718807 -0.02889656 0.00015102
0.07263993 -0.04307895 -0.00049731
0.06923552 -0.04098739 -0.00008616
0.06898637 -0.03953472 0.00026209
0.05682600 -0.02586112 0.00065860
0.05560231 -0.02456402 0.00053736
0.05305028 -0.02977532 0.00032134
0.04571374 -0.02821001 0.00017209
0.06864744 -0.03751282 0.00061398
0.04711306 -0.02828536 0.00021476
0.04707916 -0.03181628 0.00001740
0.07003433 -0.04411604 -0.00112681
0.06593025 -0.03861218 -0.00013300
0.05190779 -0.02169839 0.00038651
0.04961962 -0.03089164 0.00032984
0.05758432 -0.03831238 -0.00081222
0.07151474 -0.04048109 0.00032954
0.07205442 -0.03934264 0.00040966
0.07669124 -0.03742275 0.00116673
0.06235114 -0.02810722 0.00078917
0.05675738 -0.02911049 0.00053362
0.04975200 -0.03464836 -0.00052580
0.04985383 -0.03088085 0.00034376
0.05744419 -0.03042984 0.00047899
0.05632210 -0.03471097 0.00008995
0.07118211 -0.04142555 0.00004781
0.05414493 -0.02522879 0.00063889
0.06687721 -0.03364366 0.00075785
0.07158472 -0.04483809 -0.00115392
0.04504061 -0.02849229 0.00046046
0.05442721 -0.02297768 0.00046640
0.04801054 -0.03372862 -0.00047240
0.07393301 -0.03909465 0.00065738
0.06843715 -0.04140612 -0.00032427
0.06031919 -0.02692393 0.00072288
0.07309043 -0.03585839 0.00101327
0.05399796 -0.02717106 0.00051345
0.06917651 -0.03293624 0.00096998
0.05555658 -0.03445349 0.00008101
0.06016581 -0.02669063 0.00070822
0.06352191 -0.03783088 -0.00021441
0.04866514 -0.02844724 0.00058043
0.06683391 -0.03330617 0.00078341
0.06440115 -0.02943715 0.00085950
0.04891626 -0.02741154 0.00035346
0.06974416 -0.03747234 0.00070481
0.05206100 -0.02145027 0.00035444
0.05780304 -0.03382615 0.00007334
0.05114299 -0.02166845 0.00039973
0.06268055 -0.02832086 0.00080084
0.05400276 -0.02397116 0.00055621
0.05770577 -0.03788150 -0.00076736
0.06008163 -0.03265778 0.00065242
0.04827192 -0.03265763 -0.00008414
0.06917923 -0.04092951 -0.00007687
0.07018616 -0.04137158 -0.00007039
0.05449892 -0.03608206 -0.00041686
0.05686305 -0.03665938 -0.00057556
0.06252200 -0.03550418 0.00044523
0.07408912 -0.03573114 0.00111805
0.04604669 -0.02379842 0.00067547
0.05055035 -0.02934745 0.00024695
0.05963005 -0.03148901 0.00050504
0.05644474 -0.03037480 0.00043374
0.04573146 -0.01892290 0.00024736
0.06002508 -0.02659945 0.00070280
0.05306021 -0.02924322 0.00037080
0.06531678 -0.03941681 -0.00013957
0.04806277 -0.02718016 0.00034270
0.04538039 -0.01918236 0.00019379
0.05115677 -0.02693233 0.00044505
0.05636664 -0.03774364 -0.00077218
0.06680843 -0.03099995 0.00093512
0.06152719 -0.03760312 -0.00037034
0.06818686 -0.04325560 -0.00109104
0.06112509 -0.03009012 0.00080047
0.06239465 -0.03822788 -0.00015797
0.06908154 -0.04189079 -0.00063481
0.05513599 -0.02343565 0.00049855
0.06774327 -0.04304898 -0.00108188
0.07518441 -0.04036927 0.00055967
0.07464091 -0.04065331 0.00062881
0.07513391 -0.03641035 0.00113865
0.06832898 -0.03897852 0.00031543
0.06040385 -0.03314141 0.00037345
0.04933534 -0.03432270 -0.00052618
0.04548592 -0.01812578 0.00009392
0.07014271 -0.03856849 0.00035372
0.05066562 -0.03138336 -0.00001381
0.07152439 -0.04004772 0.00042608
0.04559165 -0.03067252 -0.00014319
0.04731629 -0.03278803 -0.00038411
0.05202930 -0.02624718 0.00048377
0.06663138 -0.03154999 0.00092784
0.06088894 -0.03896056 -0.00055536
0.04636065 -0.02376527 0.00041933
0.06615556 -0.03057601 0.00091536
0.07253579 -0.03953912 0.00062397
0.06489007 -0.03768659 0.00024218
0.06360491 -0.03713722 0.00023351
0.07105584 -0.04016855 0.00034865
0.05075246 -0.03102698 0.00004411
0.07442149 -0.04165349 0.00039778
0.05614249 -0.02408630 0.00054310
0.04994928 -0.03016138 0.00012085
0.05939852 -0.03915922 -0.00086882
0.05260407 -0.02658398 0.00049087
0.05759638 -0.03034223 0.00049321
0.05384910 -0.03094743 0.00023213
0.04782465 -0.02965472 0.00042031
0.07583505 -0.03926830 0.00082310
0.04337288 -0.02706822 0.00056594
0.05697582 -0.03072572 0.00042980
0.05464639 -0.03049866 0.00032843
0.06646589 -0.03620374 0.00063454
0.04836349 -0.03031694 0.00035269
0.04918525 -0.01959721 0.00020884
0.06469325 -0.03953106 -0.00051354
0.06984324 -0.03297143 0.00101974
0.07106234 -0.04045426 0.00028355
0.04890686 -0.03425205 -0.00049081
0.06325005 -0.03548044 0.00050401
0.06503253 -0.02984694 0.00088006
0.04953267 -0.02920758 0.00053868
0.04218683 -0.02841778 0.00037263
0.05008091 -0.02017394 0.00025531
0.05579097 -0.02656932 0.00069415
0.05592033 -0.02394266 0.00053338
0.07626314 -0.03976589 0.00090860
0.06049714 -0.03376386 0.00055585
0.05142499 -0.02104011 0.00032314
0.06126540 -0.03253758 0.00071521
0.06536018 -0.03509380 0.00069529
0.06844761 -0.04091881 -0.00043389
0.06256375 -0.02899412 0.00081664
0.05075842 -0.03467988 -0.00054984
0.06041705 -0.03777054 -0.00052062
0.05476302 -0.03528102 -0.00017771
0.05417353 -0.02326650 0.00046831
0.04492794 -0.03117325 -0.00022927
0.06556335 -0.03204453 0.00088683
0.04870524 -0.02115261 0.00031604
0.05057822 -0.02090106 0.00030328
0.05021089 -0.02084659 0.00033362
0.04172346 -0.02782932 0.00043795
0.04365170 -0.02678063 0.00059698
0.04310615 -0.02359099 0.00040179
0.05392588 -0.03552402 -0.00054714
0.04847058 -0.03365797 -0.00046927
0.06214477 -0.02797339 0.00078179
0.07501667 -0.03828463 0.00098324
0.05719016 -0.03405791 0.00028631
0.05787733 -0.02811727 0.00074419
0.07565115 -0.03796103 0.00099290
0.07000914 -0.03712549 0.00076720
0.07448615 -0.03880122 0.00089033
0.06937595 -0.03655743 0.00061872
0.06068979 -0.02990971 0.00079309
0.04970007 -0.02103873 0.00036895
0.05912547 -0.03340472 0.00051849
0.06115957 -0.03054729 0.00079643
0.04527150 -0.02746837 0.00023201
0.06437109 -0.03642396 0.00043948
0.05056334 -0.03139434 0.00030264
0.03957075 -0.02874781 0.00022649
0.05094290 -0.02961279 0.00023641
0.05021564 -0.02063713 0.00028389
0.05777041 -0.02904018 0.00057609
0.06929407 -0.03389499 0.00090262
0.05539039 -0.03135829 0.00027180
0.04329989 -0.02950967 0.00024699
0.05856245 -0.03876903 -0.00084319
0.05332546 -0.02923544 0.00065483
0.04068656 -0.02649260 0.00056571
0.06448202 -0.04020251 -0.00048459
0.07158840 -0.04101953 0.00020806
0.06569965 -0.04209698 -0.00103688
0.04947303 -0.02730436 0.00037798
0.07037574 -0.03940391 0.00043874
0.06233983 -0.02911730 0.00081493
0.07373724 -0.04356213 -0.00048580
0.05681632 -0.02548611 0.00063740
0.06332007 -0.03273667 0.00061032
0.06314653 -0.03629896 0.00008368
0.06115221 -0.02732989 0.00074552
0.05863245 -0.02569747 0.00064774
0.06051016 -0.03360038 0.00057653
0.05870038 -0.03225910 0.00036867
0.06926406 -0.04347876 -0.00107435
0.06110031 -0.02827097 0.00072536
0.04503570 -0.03243383 -0.00032045
0.06183744 -0.02777412 0.00077070
0.05841515 -0.03110819 0.00070037
0.06959054 -0.03829093 0.00034904
0.05795947 -0.03309755 0.00048851
0.04635214 -0.03065772 -0.00011380
0.04129723 -0.02671874 0.00020075
0.06101089 -0.03609041 -0.00008021
0.07370034 -0.04045931 0.00036616
0.05876933 -0.03018868 0.00074969
0.04770675 -0.02672558 0.00066609
0.07478311 -0.04109120 0.00055970
0.07411173 -0.03814906 0.00093529
0.05914969 -0.03794334 -0.00045103
0.04817349 -0.01918774 0.00019081
0.06293571 -0.03439284 0.00039170
0.07237517 -0.04085569 0.00034227
0.05439171 -0.02442524 0.00050900
0.07076150 -0.03445531 0.00096277
0.06282566 -0.02841497 0.00080594
0.05317039 -0.02216610 0.00040782
0.06620974 -0.03258655 0.00089448
0.07578028 -0.03879491 0.00098454
0.07295074 -0.03499111 0.00109399
0.04600377 -0.01971394 0.00033902
0.07066706 -0.03729185 0.00079319
0.07132464 -0.03853701 0.00048529
0.05922069 -0.03445886 0.00036797
0.04787302 -0.02224063 0.00054149
0.06230088 -0.02927440 0.00081673
0.04842704 -0.03136690 -0.00012881
0.07068027 -0.04313271 -0.00079777
0.05937826 -0.03914977 -0.00086820
0.05431797 -0.02932531 0.00041937
0.04078629 -0.02574637 0.00027348
0.05777864 -0.02800811 0.00074143
0.07276883 -0.03668289 0.00098161
0.07419616 -0.04138117 0.00043342
0.07207921 -0.03845153 0.00057775
0.04644240 -0.02379663 0.00066961
0.07008793 -0.04389427 -0.00109584
0.05106011 -0.03126289 0.00035068
0.06283360 -0.03189359 0.00065081
0.04294308 -0.03046355 0.00005431
0.06520232 -0.02995714 0.00088550
0.04785532 -0.01875529 0.00013550
0.06473721 -0.03741032 0.00001288
0.06673300 -0.04171112 -0.00087552
0.05357367 -0.03165573 0.00043150
0.05622073 -0.03468323 -0.00021405
0.04639326 -0.01790622 0.00006385
0.06414787 -0.02927279 0.00085110
0.05367465 -0.02249165 0.00043156
0.04681497 -0.02896660 0.00046641
0.06836676 -0.03388997 0.00083773
0.05380710 -0.03292189 0.00024711
0.06393367 -0.02983428 0.00085575
0.06005595 -0.02664899 0.00070068
0.07109296 -0.03596511 0.00083653
0.04870449 -0.02170595 0.00034976
0.04701856 -0.02776848 0.00059182
0.06729000 -0.03131270 0.00094935
0.07373149 -0.04396825 -0.00038153
0.07174236 -0.04351830 -0.00077026
0.05480725 -0.03605038 -0.00037611
0.06924916 -0.04134759 -0.00019187
0.04674756 -0.03306676 -0.00041674
0.04667132 -0.02853345 0.00017175
0.05045646 -0.03030605 0.00045260
0.06974462 -0.03666217 0.00080101
0.07313708 -0.04237958 0.00004192
0.05015069 -0.02021889 0.00025888
0.05357448 -0.03241233 0.00000285
0.04705083 -0.02746959 0.00028857
0.06356899 -0.03431919 0.00067254
0.05277760 -0.03440495 -0.00013910
0.07279524 -0.04192662 0.00012333
0.06668208 -0.03208309 0.00086100
0.05126466 -0.02378747 0.00045001
0.05203290 -0.02525442 0.00066003
0.04264856 -0.03041042 0.00004926
0.04846328 -0.03397432 -0.00049103
0.05735382 -0.02795416 0.00059495
0.04459963 -0.02249917 0.00064592
0.04084836 -0.02609614 0.00060536
0.04628454 -0.03077662 -0.00013320
0.04682725 -0.02790001 0.00024252
0.05102489 -0.02153575 0.00038862
0.04906177 -0.02733024 0.00066019
0.05404274 -0.02636692 0.00052581
0.05549070 -0.03457964 -0.00025082
0.04707713 -0.03339327 -0.00041235
0.07536084 -0.03911290 0.00091878
0.04167716 -0.02445888 0.00036429
0.05285914 -0.02799641 0.00044830
0.05903075 -0.03206510 0.00041206
0.06281564 -0.03393305 0.00067009
0.06231163 -0.03512087 0.00022551
0.06745475 -0.03141970 0.00095415
0.04532149 -0.02523612 0.00038303
0.07012463 -0.03597770 0.00088671
0.04576497 -0.03277674 -0.00035381
0.06288979 -0.03733785 0.00011834
0.05066604 -0.03384220 -0.00017851
0.07355058 -0.03659397 0.00103363
0.04895095 -0.03427272 -0.00049265
0.04644721 -0.03216051 -0.00009864
0.05771907 -0.02530329 0.00062559
0.06879080 -0.03466293 0.00090915
0.04326982 -0.02434264 0.00038620
0.06240141 -0.03415448 0.00062304
0.04299391 -0.02366373 0.00040005
0.05476938 -0.03682254 -0.00062240
0.07554239 -0.04053933 0.00056717
0.06938169 -0.03846016 0.00052150
0.05447982 -0.03450975 -0.00002043
0.05033838 -0.02037061 0.00027564
0.05389193 -0.02716649 0.00051072
0.06385234 -0.03034810 0.00079109
0.05084820 -0.03516210 -0.00056999
0.06420182 -0.02972414 0.00086088
0.05139166 -0.02628642 0.00069312
0.04299569 -0.02725713 0.00053865
0.07307669 -0.03548381 0.00105170
0.04742987 -0.02349469 0.00063934
0.06446423 -0.03131965 0.00077640
0.07364328 -0.03874976 0.00068530
0.06482765 -0.04051966 -0.00076389
0.06209642 -0.03044078 0.00069997
0.05842883 -0.02807782 0.00074759
0.07107462 -0.04173549 -0.00005580
0.07191475 -0.04208744 -0.00029835
0.05817808 -0.03176808 0.00039258
0.04019857 -0.02955038 -0.00009157
0.05591957 -0.02394217 0.00053335
0.04946467 -0.02503560 0.00045039
0.06913243 -0.04135810 -0.00021133
0.04483162 -0.02481302 0.00069758
0.06420030 -0.02936305 0.00085658
0.06393445 -0.02956979 0.00085302
0.04738807 -0.03209445 -0.00028406
0.04507272 -0.02644663 0.00031072
0.05510089 -0.02555174 0.00054468
0.05886159 -0.02946416 0.00076367
0.05814473 -0.02777180 0.00062378
0.06053748 -0.03881886 -0.00075799
0.06863322 -0.04346349 -0.00110003
0.04656030 -0.03315050 -0.00038952
0.06024474 -0.03119675 0.00056243
0.07212747 -0.04154432 -0.00011143
0.05323251 -0.02959515 0.00062930
0.05440995 -0.02928469 0.00042640
0.06562729 -0.04178896 -0.00100646
0.05029840 -0.03490448 -0.00054799
0.04548106 -0.02092381 0.00032367
0.07299185 -0.03936476 0.00050900
0.06885972 -0.04079134 -0.00034344
0.04833536 -0.03231810 -0.00028079
0.06690900 -0.03252614 0.00092010
0.05414446 -0.02684259 0.00070343
0.06725509 -0.04164221 -0.00057520
0.04478071 -0.02572313 0.00067590
0.06870641 -0.03742006 0.00063247
0.06901656 -0.03243428 0.00099788
0.05002338 -0.03241012 -0.00021411
0.05060262 -0.03504703 -0.00056021
0.06929043 -0.03894483 0.00042122
0.05255986 -0.02382690 0.00056603
0.04933197 -0.02959209 0.00016229
0.04831277 -0.03397333 -0.00046574
0.04957262 -0.02941519 0.00019432
0.04822626 -0.02814510 0.00059287
0.03904049 -0.02886309 0.00018323
0.05556396 -0.02885907 0.00071747
0.05018070 -0.03484931 -0.00054324
0.06500535 -0.04177348 -0.00102053
0.05369744 -0.03649589 -0.00067862
0.04794767 -0.02015789 0.00032131
0.06319522 -0.03858906 -0.00016404
0.07722735 -0.03779398 0.00117014
0.04637483 -0.02280297 0.00040320
0.07230150 -0.03915695 0.00047342
0.05318963 -0.02453376 0.00049242
0.06106907 -0.03314724 0.00041924
0.04518595 -0.02571675 0.00067896
0.06115223 -0.03015475 0.00066920
0.06175377 -0.03999778 -0.00091935
0.06028266 -0.03466937 0.00012930
0.07463034 -0.03608297 0.00112889
0.05471014 -0.03531398 -0.00045529
0.07110038 -0.03840876 0.00067931
0.04823075 -0.02191495 0.00050218
0.06649375 -0.03736917 0.00020604
0.07152955 -0.03818366 0.00056806
0.05079541 -0.02063429 0.00029165
0.04573027 -0.02522038 0.00039048
0.07596363 -0.03904197 0.00087086
0.05368280 -0.02249691 0.00043195
0.04424246 -0.02978944 0.00024201
0.05004884 -0.02015328 0.00025366
0.06665660 -0.03222318 0.00085048
0.04724849 -0.03273272 -0.00017638
0.04796431 -0.02377253 0.00064401
0.06736614 -0.03521066 0.00063010
0.06653646 -0.03620683 0.00063913
0.06363124 -0.03162981 0.00083847
0.06261157 -0.03989341 -0.00063667
0.06923815 -0.03562165 0.00086639
0.04821917 -0.02052092 0.00027457
0.06052937 -0.03140391 0.00075411
0.04877772 -0.03311009 -0.00038557
0.04708145 -0.01824411 0.00009575
0.03993891 -0.03003165 -0.00007092
0.04552637 -0.02310244 0.00040945
0.05060299 -0.03504721 -0.00056022
0.06904011 -0.04140798 -0.00049705
0.07080848 -0.04279195 -0.00043460
0.06225764 -0.03585518 0.00008606
0.04760877 -0.02844914 0.00054880
0.05735644 -0.03820596 -0.00080485
0.06238870 -0.03155984 0.00080451
0.05955057 -0.03721272 -0.00019967
0.05436199 -0.03655208 -0.00057926
0.04988624 -0.02677607 0.00068654
0.04573682 -0.01738048 0.00002059
0.05745534 -0.02613544 0.00067226
0.05818565 -0.03067432 0.00049670
0.05743431 -0.03697006 -0.00035983
0.05306654 -0.03034507 0.00026106
0.07231591 -0.03546878 0.00098896
0.05377373 -0.03158284 0.00045203
0.04702432 -0.02465897 0.00042232
0.06129344 -0.03534391 0.00037596
0.04749727 -0.02045177 0.00037181
0.07041432 -0.04429301 -0.00113370
0.06421554 -0.04037881 -0.00079222
0.05511827 -0.02342420 0.00049775
0.05387286 -0.02540609 0.00065089
0.07140809 -0.04388810 -0.00074184
0.05208560 -0.02237538 0.00039911
0.05416626 -0.02716229 0.00051815
0.06871126 -0.03223593 0.00098958
0.06394512 -0.03527402 0.00058287
0.05838573 -0.03823036 -0.00079240
0.04859889 -0.01921986 0.00017788
0.04741641 -0.02162743 0.00049947
0.05921610 -0.03907410 -0.00086329
0.07139905 -0.04350869 -0.00081599
0.05282090 -0.03117016 0.00014269
0.06975711 -0.04398694 -0.00112169
0.04298152 -0.03022938 -0.00015070
0.04585608 -0.01745704 0.00002734
0.06001005 -0.02681096 0.00069790
0.04815510 -0.03042166 -0.00000258
0.06943923 -0.04383889 -0.00111570
0.07506600 -0.03743778 0.00100544
0.05672477 -0.03003936 0.00070442
0.07116630 -0.03673833 0.00074894
0.04804743 -0.02549308 0.00042191
0.06585610 -0.03958838 -0.00039183
0.06848751 -0.03298580 0.00096613
0.04812323 -0.02419321 0.00043425
0.06333710 -0.03018167 0.00084487
0.05231590 -0.03584942 -0.00062707
0.04875937 -0.01982135 0.00025328
0.06705131 -0.03687805 0.00058288
0.07019296 -0.03582815 0.00077973
0.07440973 -0.03593956 0.00112452
0.03971742 -0.02825299 0.00002642
0.03937119 -0.02862362 -0.00000913
0.07444772 -0.04053476 0.00063127
0.06756871 -0.03316607 0.00084244
0.06061218 -0.03833980 -0.00039718
0.07081699 -0.04150490 -0.00028236
0.04727811 -0.03348765 -0.00042115
0.06206930 -0.02945090 0.00081505
0.05453724 -0.03361250 0.00017125
0.06050735 -0.03538030 0.00001677
0.07121284 -0.04437917 -0.00110323
0.06461246 -0.03276162 0.00083241
0.07454118 -0.04137347 0.00047445
0.04451336 -0.03218810 -0.00029619
0.06371420 -0.03308731 0.00078065
0.06013941 -0.03321483 0.00059962
0.05711654 -0.02603559 0.00066735
0.04881776 -0.01936070 0.00018949
0.06338191 -0.03690187 -0.00001803
0.05154740 -0.02505447 0.00047872
0.06550751 -0.03640860 0.00029050
0.06762744 -0.04007457 -0.00030431
0.06450363 -0.03546664 0.00035901
0.06413248 -0.03235381 0.00083212
0.07460973 -0.03848467 0.00093466
0.04429411 -0.02112719 0.00034796
0.07274886 -0.03703771 0.00084768
0.06330721 -0.03537164 0.00027001
0.06154211 -0.02758264 0.00075992
0.07454271 -0.04049659 0.00045904
0.05112084 -0.03375104 -0.00012053
0.06956811 -0.03279265 0.00101257
0.04402028 -0.02738219 0.00020314
0.04581764 -0.02154518 0.00035561
0.05092275 -0.02199658 0.00037001
0.07243030 -0.04195520 -0.00018573
0.06365945 -0.03221076 0.00067418
0.05974315 -0.02816531 0.00067334
0.06878022 -0.04216102 -0.00052676
0.04921116 -0.02317669 0.00058232
0.06329453 -0.03980726 -0.00073977
0.07204293 -0.04505149 -0.00116141
0.05005164 -0.02404453 0.00062330
0.05082189 -0.02746302 0.00068079
0.07362752 -0.04319292 -0.00013531
0.04256922 -0.02517943 0.00068374
0.05700325 -0.03100549 0.00065710
0.05200263 -0.03196790 0.00029394
0.07709482 -0.03779164 0.00116715
0.05600478 -0.02603474 0.00067005
0.04757072 -0.03013942 0.00000990
0.07480949 -0.03619944 0.00113240
0.04222098 -0.02286702 0.00040477
0.07048790 -0.03623713 0.00075507
0.04157451 -0.02838745 0.00003564
0.03984947 -0.02974166 0.00003322
0.05345015 -0.03200589 0.00005923
0.06355493 -0.03286434 0.00061329
0.06544048 -0.03388384 0.00080428
0.04845609 -0.02340082 0.00061367
0.06694848 -0.03571305 0.00072564
0.05580331 -0.03474968 -0.00026030
0.06706370 -0.03354903 0.00089120
0.04545348 -0.01856715 0.00021021
0.06836964 -0.03629981 0.00075162
0.06558664 -0.03811475 -0.00005357
0.07326493 -0.04396631 -0.00045782
0.07444124 -0.03997291 0.00072606
0.05777523 -0.02843941 0.00074778
0.04010354 -0.02976835 -0.00010321
0.05092686 -0.02479482 0.00046810
0.04194233 -0.03097711 -0.00017241
0.05968214 -0.02637728 0.00068947
0.07155272 -0.04343926 -0.00054711
0.07428288 -0.03997561 0.00053451
0.06582994 -0.03705924 0.00045271
0.04440510 -0.03213716 -0.00029112
0.06120044 -0.03999982 -0.00092140
0.06465136 -0.03397683 0.00057276
0.04277086 -0.02477409 0.00036358
0.06136658 -0.04007730 -0.00092606
0.07413877 -0.03854640 0.00076621
0.06051728 -0.03871842 -0.00052489
0.05796281 -0.03361600 0.00012145
0.04450217 -0.02282441 0.00040467
0.04947110 -0.02478165 0.00066664
0.05115249 -0.02672389 0.00045234
0.06510199 -0.04147221 -0.00084458
0.06973035 -0.03552723 0.00077724
0.07056216 -0.04349165 -0.00073122
0.06626639 -0.03064796 0.00091875
0.07610701 -0.03704295 0.00115656
0.05019275 -0.03428539 -0.00051144
0.05405843 -0.03659050 -0.00070698
0.05134434 -0.03088647 0.00009716
0.04217697 -0.02832626 0.00005475
0.07360182 -0.03953571 0.00054327
0.05822847 -0.03514825 -0.00013983
0.07330625 -0.04012743 0.00039097
0.05610571 -0.02842135 0.00073018
0.03938143 -0.02976826 -0.00004189
0.04649581 -0.02645887 0.00034604
0.06134705 -0.02969607 0.00080469
0.05508733 -0.02622418 0.00054927
0.05051402 -0.02939275 0.00024038
0.05529211 -0.02353655 0.00050555
0.06499930 -0.03334798 0.00066089
0.06983032 -0.03387229 0.00094350
0.04119902 -0.02821607 0.00036875
0.06256229 -0.03801957 -0.00036331
0.05852562 -0.03130085 0.00069239
0.06995643 -0.04024992 -0.00005330
0.05307198 -0.03295250 -0.00012210
0.05329921 -0.02253774 0.00042329
0.04528054 -0.02696353 0.00061453
0.04534239 -0.03201523 -0.00032346
0.06956446 -0.03830252 0.00056524
0.04891706 -0.01942460 0.00019473
0.05493573 -0.03173993 0.00019359
0.06479669 -0.02969386 0.00087244
0.04288059 -0.02735454 0.00052564
0.04439484 -0.02410729 0.00070051
0.06599021 -0.03955452 -0.00009522
0.05831411 -0.02549137 0.00063481
0.06273360 -0.02835527 0.00080271
0.07258044 -0.04530182 -0.00116991
0.06549230 -0.03391325 0.00080466
0.07576521 -0.03996432 0.00084172
0.07037196 -0.04398352 -0.00096766
0.04568299 -0.02793605 0.00019965
0.06439806 -0.03647679 0.00043259
0.07260460 -0.04531307 -0.00117029
0.04942629 -0.03315394 -0.00036616
0.07436706 -0.03591182 0.00112367
0.06582404 -0.03929908 -0.00004569
0.06064961 -0.03117212 0.00058543
0.05204522 -0.02710034 0.00046283
0.06461353 -0.04040119 -0.00075563
0.05890355 -0.03524732 -0.00010070
0.05225743 -0.02198000 0.00038142
0.04848570 -0.03171254 -0.00017938
0.05454161 -0.03471946 -0.00034926
0.04251341 -0.02688941 0.00021091
0.04821905 -0.02331888 0.00041957
0.05898095 -0.03822463 -0.00075043
0.04547223 -0.03263911 -0.00034049
0.06889289 -0.04064920 -0.00003446
0.05321883 -0.03412758 -0.00003864
0.05755426 -0.02876044 0.00057887
0.04136944 -0.02944391 0.00017507
0.04476619 -0.02821293 0.00048444
0.05844546 -0.03742719 -0.00037947
0.07403259 -0.04168507 0.00034353
0.04812219 -0.02389140 0.00043101
0.05331199 -0.03550421 -0.00057768
0.06883490 -0.03312037 0.00093179
0.07391336 -0.03668527 0.00104839
0.05917871 -0.03825925 -0.00054522
0.04732926 -0.01840337 0.00010936
0.05124092 -0.02788176 0.00067337
0.06410794 -0.03179083 0.00072881
0.04773914 -0.02755599 0.00062362
0.06238172 -0.03649480 0.00025195
0.04758994 -0.02682019 0.00035270
0.05366904 -0.03070151 0.00055013
0.07208588 -0.04242346 -0.00012101
0.06692277 -0.03438101 0.00069061
0.04577416 -0.03184608 -0.00029673
0.05359456 -0.03255147 0.00029680
0.04241456 -0.02783432 0.00045766
0.05742943 -0.03003514 0.00072259
0.06737445 -0.03136755 0.00095181
0.06308696 -0.03550172 0.00022795
0.05196887 -0.02842097 0.00039002
0.04282749 -0.02228190 0.00039942
0.05667895 -0.02945934 0.00051130
0.05000082 -0.03476500 -0.00053594
0.06896120 -0.04035645 -0.00020999
0.07182171 -0.04493978 -0.00114141
0.04835667 -0.03102208 -0.00008010
0.04935060 -0.03446016 -0.00050928
0.04121778 -0.03063537 -0.00013621
0.05382727 -0.03527357 -0.00026205
0.04205368 -0.02687154 0.00020221
0.07142919 -0.04170338 -0.00025441
0.04588082 -0.03134172 0.00004141
0.04007899 -0.02873549 0.00024808
0.07381787 -0.03555480 0.00111247
0.05358918 -0.03644524 -0.00067465
0.07284746 -0.03492398 0.00109172
0.06516699 -0.03545859 0.00041728
0.04504229 -0.02793968 0.00017811
0.04874905 -0.03349767 -0.00044310
0.03861646 -0.02940662 -0.00000151
0.04380594 -0.02202203 0.00063824
0.06488749 -0.02975279 0.00087538
0.06452858 -0.03296079 0.00066564
0.05554183 -0.02751056 0.00054893
0.07363540 -0.03941461 0.00056944
0.04986921 -0.03308498 -0.00006454
0.04799027 -0.03143603 0.00014690
0.06204283 -0.03285920 0.00072517
0.04654980 -0.03082673 -0.00013021
0.06389898 -0.03804290 -0.00022412
0.06222902 -0.02959744 0.00074022
0.05543008 -0.03726744 -0.00075423
0.06333314 -0.02920455 0.00083496
0.07024534 -0.03491457 0.00096368
0.06510157 -0.03257696 0.00073175
0.06507490 -0.04180588 -0.00102219
0.04512726 -0.02655559 0.00063885
0.07086201 -0.04447512 -0.00111081
0.07357313 -0.03577664 0.00106402
0.07181498 -0.04046353 0.00013072
0.05735706 -0.02845617 0.00074375
0.04149761 -0.03076738 -0.00015026
0.07378529 -0.03736506 0.00089795
0.07075799 -0.04445307 -0.00113980
0.06390075 -0.03833465 -0.00029533
0.05693253 -0.02968912 0.00050802
0.05315990 -0.03562075 -0.00042190
0.05366073 -0.02452706 0.00060047
0.05828738 -0.03011811 0.00054136
0.06898459 -0.03605863 0.00065322
0.04872472 -0.03098981 0.00026640
0.05169099 -0.03221121 0.00023329
0.05731437 -0.02874400 0.00074404
0.04625538 -0.02022916 0.00039127
0.04894001 -0.03047900 0.00002720
0.07044342 -0.03553154 0.00093636
0.06242505 -0.03839145 -0.00046994
0.07154502 -0.04249644 -0.00022354
0.05082522 -0.03236078 0.00015017
0.05540209 -0.03598978 -0.00029984
0.05587919 -0.03092261 0.00062067
0.07407922 -0.04296181 -0.00024378
0.06489474 -0.03171862 0.00077742
0.06364971 -0.03322828 0.00076891
0.06668325 -0.03448392 0.00082098
0.05466456 -0.02504024 0.00062307
0.05546138 -0.03280236 0.00037603
0.06401477 -0.03513318 0.00060591
0.05827715 -0.02677052 0.00070345
0.07165029 -0.04486862 -0.00115500
0.06578984 -0.03033855 0.00090404
0.04803008 -0.01885396 0.00014743
0.07064225 -0.03349066 0.00104003
0.07001097 -0.04346853 -0.00081617
0.06004252 -0.03756055 -0.00024010
0.05288023 -0.02917506 0.00064643
0.04933996 -0.02341762 0.00059662
0.04391668 -0.02106334 0.00034881
0.05484729 -0.02816417 0.00071718
0.07359781 -0.03691697 0.00101246
0.07581975 -0.03795902 0.00106691
0.04669979 -0.02277989 0.00040233
0.04973923 -0.03160297 0.00021999
0.07417572 -0.04307409 -0.00001634
0.04852030 -0.01916930 0.00017370
0.04358838 -0.02537928 0.00034611
0.06180826 -0.02775519 0.00076964
0.04167227 -0.02595864 0.00027228
0.05647317 -0.03765380 -0.00078455
0.07067634 -0.03719810 0.00080438
0.06982911 -0.03999854 0.00024889
0.06555385 -0.03432759 0.00077724
0.05193973 -0.03212765 -0.00005577
0.05585171 -0.03031409 0.00066417
0.07020970 -0.03436101 0.00098933
0.05760403 -0.03621881 -0.00014231
0.04907181 -0.03100750 -0.00004265
0.05817421 -0.03237807 0.00058643
0.07448068 -0.03856890 0.00091637
0.04974743 -0.02603621 0.00069075
0.05503567 -0.03493903 -0.00007100
0.06868739 -0.04045747 -0.00027305
0.06951486 -0.03275805 0.00101116
0.04462445 -0.01885826 0.00028686
0.05969107 -0.02638307 0.00068982
0.04387033 -0.02174083 0.00037908
0.05431740 -0.03678584 -0.00070105
0.04983153 -0.03185366 -0.00013369
0.07064186 -0.04439898 -0.00113775
0.04717762 -0.02560605 0.00040262
0.05228824 -0.02808035 0.00068378
0.05892967 -0.03139835 0.00070070
0.04109192 -0.03044346 -0.00015646
0.04572011 -0.03275565 -0.00035177
0.06336818 -0.03246312 0.00063705
0.07417174 -0.04259251 0.00012454
0.05435912 -0.02374914 0.00048848
0.06926664 -0.04173428 -0.00056315
0.04165451 -0.02692181 0.00018900
0.05048429 -0.02051925 0.00028934
0.06943490 -0.03832201 0.00055043
0.05618558 -0.03258169 0.00045270
0.06822538 -0.03607421 0.00076664
0.06199982 -0.03810619 -0.00016989
0.06992134 -0.03800221 0.00043788
0.04819729 -0.03047862 -0.00000864
0.06823289 -0.04043823 -0.00032660
0.05454030 -0.03625157 -0.00046226
0.05404177 -0.02963326 0.00065117
0.04724610 -0.02145491 0.00048815
0.07100557 -0.04173634 -0.00032352
0.06461757 -0.04097760 -0.00090497
0.05987789 -0.02650409 0.00069710
0.07045190 -0.03423241 0.00095902
0.05226849 -0.02158411 0.00036454
0.06089596 -0.03585569 -0.00004240
0.04664086 -0.03128698 -0.00019309
0.05231960 -0.03575639 -0.00056623
0.05264867 -0.03541055 -0.00059294
0.06269695 -0.03764843 -0.00025936
0.06853395 -0.03212074 0.00098470
0.04388081 -0.02412569 0.00039804
0.04727112 -0.03334733 -0.00044045
0.06259452 -0.03528598 0.00022180
0.07230082 -0.04246558 -0.00010287
0.06118918 -0.03570997 0.00001451
0.04648536 -0.01993559 0.00034745
0.06254445 -0.03347393 0.00069907
0.06456748 -0.04095777 -0.00090487
0.04756226 -0.02280122 0.00059344
0.05894173 -0.03849472 -0.00080862
0.07073554 -0.04444261 -0.00113940
0.05442088 -0.03200517 0.00012234
0.06758660 -0.03256599 0.00088699
0.05486187 -0.02675341 0.00070131
0.05025903 -0.03100735 0.00001987
0.04664984 -0.02574894 0.00068590
0.04646192 -0.01784608 0.00006140
0.06134788 -0.03901601 -0.00051464
0.04438241 -0.03196092 -0.00020906
0.04150896 -0.02627136 0.00024407
0.05635595 -0.03416397 0.00020318
0.05598065 -0.03409783 0.00018688
0.07581104 -0.03685054 0.00115124
0.04838089 -0.01950682 0.00022550
0.06013327 -0.03183911 0.00050171
0.05209274 -0.03217240 -0.00005357
0.06022416 -0.03313499 0.00036161
0.07313140 -0.04369283 -0.00062123
0.06850261 -0.04165499 -0.00064124
0.05842199 -0.03498095 -0.00008964
0.07437322 -0.03988910 0.00073320
0.07138904 -0.03458811 0.00099979
0.07571206 -0.04018467 0.00080556
0.05905778 -0.02980730 0.00076359
0.04710900 -0.03061260 -0.00007671
0.07418557 -0.04353674 -0.00016137
0.04452869 -0.03219531 -0.00029690
0.07667541 -0.03788481 0.00113053
0.06577566 -0.03634403 0.00056414
0.05632739 -0.03700297 -0.00068334
0.04644348 -0.02859916 0.00015584
0.07175838 -0.04449046 -0.00107110
0.06386504 -0.04124208 -0.00099251
0.05337416 -0.02694738 0.00070390
0.06314882 -0.03306410 0.00075843
0.05867291 -0.02576845 0.00064639
0.04817342 -0.01968246 0.00025472
0.05590407 -0.03610750 -0.00053124
0.06076810 -0.02967011 0.00079476
0.04328087 -0.03160790 -0.00023776
0.06716067 -0.04101210 -0.00037759
0.04402627 -0.02219996 0.00039268
0.06275006 -0.03597741 0.00038287
0.07456361 -0.04108625 0.00053723
0.05590586 -0.03456170 -0.00021497
0.04327136 -0.02191482 0.00064623
0.05695560 -0.02798430 0.00073526
0.04744223 -0.02862143 0.00052653
0.04327779 -0.02719934 0.00055121
0.05060496 -0.02264551 0.00040121
0.05559030 -0.03406014 -0.00014270
0.07143742 -0.03400746 0.00105940
0.06167837 -0.03243474 0.00053738
0.06911811 -0.04290087 -0.00074404
0.06579898 -0.03831281 -0.00007611
0.05779149 -0.03511023 -0.00016977
0.06013112 -0.03073028 0.00076764
0.04020971 -0.02779802 0.00039791
0.04061167 -0.02834636 0.00002513
0.05176659 -0.02132735 0.00035062
0.06273213 -0.03786885 -0.00030851
0.07319052 -0.03929469 0.00054368
0.04919566 -0.03108554 0.00027639
0.05926140 -0.03596386 -0.00021770
0.05615472 -0.03268501 0.00013696
0.06512850 -0.04020361 -0.00064453
0.06988017 -0.04283058 -0.00059449
0.06790198 -0.03351587 0.00092588
0.05612984 -0.02434927 0.00056558
0.05376467 -0.03083409 0.00024134
0.06233598 -0.03267859 0.00055450
0.06614642 -0.03605895 0.00063114
0.07436834 -0.03592124 0.00112572
0.06630504 -0.03067306 0.00091993
0.06929879 -0.04168748 -0.00054486
0.07285567 -0.04219847 -0.00019559
0.07240579 -0.03564511 0.00097814
0.06441783 -0.03877119 -0.00034688
0.06017268 -0.03650408 0.00004052
0.05122981 -0.02690028 0.00044819
0.06278272 -0.03553263 0.00019500
0.06471738 -0.04027522 -0.00047627
0.07212635 -0.04055977 0.00014682
0.06464348 -0.03144828 0.00077911
0.04429294 -0.02872600 0.00006581
0.05469958 -0.02760861 0.00052192
0.05804802 -0.03571410 0.00002097
0.05027630 -0.03058017 0.00008157
0.07037481 -0.03828821 0.00043214
0.07267203 -0.04118659 0.00005967
0.05581242 -0.02389440 0.00052587
0.06873529 -0.03928272 0.00029178
0.06744971 -0.04291225 -0.00107570
0.06037493 -0.02902392 0.00067801
0.05016606 -0.02706055 0.00041211
0.04796709 -0.03119032 -0.00012355
0.05253179 -0.03238327 -0.00006052
0.06836057 -0.03266128 0.00093232
0.06913614 -0.03251198 0.00100110
0.07728095 -0.03780611 0.00117654
0.03908004 -0.02865521 -0.00001055
0.05314387 -0.03494238 -0.00048481
0.06571713 -0.03821163 -0.00006154
0.04593253 -0.03000435 0.00028478
0.04317716 -0.02173224 0.00038395
0.06142049 -0.02772780 0.00076606
0.07039517 -0.04374824 -0.00102204
0.04938865 -0.02012632 0.00027193
0.05900348 -0.03737012 -0.00055700
0.06813884 -0.03734665 0.00037716
0.07052754 -0.03795912 0.00069826
0.05887169 -0.02876907 0.00062712
0.06513450 -0.03816679 0.00015984
0.07339492 -0.04446434 -0.00062275
0.06724334 -0.03329492 0.00081104
0.05269010 -0.02344922 0.00045237
0.05798300 -0.03745651 -0.00043999
0.06079385 -0.02770048 0.00072175
0.06227032 -0.02957197 0.00074300
0.05715282 -0.03461817 0.00017755
0.04566601 -0.03096862 0.00010254
0.04727407 -0.02050126 0.00027855
0.04912559 -0.02691016 0.00067627
0.06735052 -0.04152861 -0.00052181
0.06387261 -0.03177760 0.00084188
0.05002979 -0.02275620 0.00040398
0.07009114 -0.04073572 0.00009495
0.04656587 -0.02294640 0.00062623
0.04257209 -0.02257920 0.00069422
0.05492276 -0.03464042 -0.00001245
0.05654328 -0.02508442 0.00061361
0.06955327 -0.04348912 -0.00104684
0.06587066 -0.04217665 -0.00104082
0.06707094 -0.03614256 0.00047783
0.06532637 -0.03796094 0.00022640
0.05179077 -0.03110349 0.00009191
0.04374280 -0.02098555 0.00056298
0.06953612 -0.03370090 0.00098617
0.07217635 -0.04511362 -0.00116355
0.04904998 -0.02647237 0.00040968
0.05297451 -0.02644068 0.00050155
0.04451625 -0.02220293 0.00039057
0.06335602 -0.03599782 0.00016229
0.05793891 -0.03569833 0.00001452
0.07101852 -0.03410631 0.00101407
0.05918444 -0.02935023 0.00076929
0.05005253 -0.02745167 0.00067046
0.07228330 -0.04256908 -0.00013767
0.06607294 -0.03484167 0.00076084
0.06487310 -0.03407793 0.00076334
0.04597962 -0.02755600 0.00058377
0.07220366 -0.04328905 -0.00062937
0.05217669 -0.03523066 -0.00058351
0.06962583 -0.03283016 0.00101408
0.06994260 -0.04024940 0.00020145
0.06667835 -0.04255293 -0.00105901
0.05326652 -0.02807184 0.00069868
0.07092410 -0.03815341 0.00070214
0.05818961 -0.02692127 0.00063244
0.07225678 -0.03476935 0.00107037
0.06914331 -0.04177492 -0.00034220
0.07212489 -0.04281234 -0.00023939
0.06676452 -0.03671656 0.00058468
0.05854551 -0.02804780 0.00063265
0.06542454 -0.03915880 -0.00005572
0.04728481 -0.02206416 0.00054301
0.05940487 -0.03412237 0.00043514
0.06675777 -0.03702609 0.00029898
0.07302922 -0.03504213 0.00109570
0.06597954 -0.03143665 0.00090875
0.06016103 -0.02904936 0.00066864
0.07121110 -0.03447950 0.00103116
0.05401864 -0.02786754 0.00071049
0.06123809 -0.03768907 -0.00014323
0.07499957 -0.04101277 0.00059778
0.06334565 -0.03735834 -0.00012304
0.04623051 -0.02936966 0.00039187
0.04001861 -0.02896186 0.00020579
0.04193964 -0.03042547 -0.00017633
0.05350502 -0.02678938 0.00070176
0.05256258 -0.03596488 -0.00063643
0.06859880 -0.03319397 0.00090976
0.05996222 -0.02977258 0.00078061
0.05873069 -0.02935807 0.00076219
0.05013766 -0.03133115 0.00028879
0.07230791 -0.03498901 0.00106223
0.04707904 -0.02679609 0.00033997
0.05839623 -0.02978088 0.00075110
0.04939944 -0.02557526 0.00068715
0.06502950 -0.03403121 0.00059351
0.04791000 -0.02639238 0.00038532
0.06127712 -0.02874803 0.00079165
0.05283095 -0.02957961 0.00032995
0.04147151 -0.03075507 -0.00014895
0.06680769 -0.04024579 -0.00018922
0.06231818 -0.03109827 0.00081447
0.07330684 -0.04497452 -0.00084418
0.05661932 -0.03403405 -0.00005760
0.05720931 -0.02946602 0.00053311
0.04898047 -0.02395633 0.00043763
0.07124015 -0.04203003 -0.00012120
0.04184136 -0.02653742 0.00022785
0.07454219 -0.03991444 0.00057524
0.06119766 -0.03587701 0.00026954
0.06373006 -0.03999140 -0.00051734
0.06617493 -0.04166343 -0.00092364
0.04331627 -0.02309542 0.00040589
0.04263300 -0.02556481 0.00031789
0.04864797 -0.03375198 -0.00047745
0.04917794 -0.03119327 -0.00006512
0.07391908 -0.03640163 0.00106840
0.04886306 -0.01949993 0.00020958
0.05561457 -0.03636697 -0.00060409
0.04364651 -0.02368301 0.00040371
0.06492283 -0.03893561 -0.00033098
0.04290290 -0.02460133 0.00070359
0.05256398 -0.03372585 -0.00029457
0.04401199 -0.03195214 -0.00027262
0.04981740 -0.02830846 0.00062180
0.04982576 -0.03430748 -0.00052330
0.07205391 -0.03711560 0.00077665
0.04993397 -0.03361740 -0.00041876
0.07132875 -0.03965300 0.00026035
0.04472781 -0.02057516 0.00048778
0.05358159 -0.03325721 0.00016958
0.06095791 -0.03416080 0.00053338
0.05516683 -0.02345558 0.00049993
0.06695863 -0.03730811 0.00050678
0.05332876 -0.03108072 0.00018468
0.05483558 -0.03287844 0.00032342
0.04372205 -0.02281794 0.00040481
0.07337537 -0.03603136 0.00106127
0.05794173 -0.02621681 0.00062398
0.04203330 -0.02452302 0.00036549
0.05732532 -0.03819143 -0.00080384
0.05555482 -0.03349241 -0.00004123
0.06150316 -0.03131677 0.00061983
0.04610416 -0.02676400 0.00064180
0.05943515 -0.03781845 -0.00038101
0.04592206 -0.03098204 -0.00017509
0.04215889 -0.02385450 0.00039033
0.04572233 -0.02208315 0.00058931
0.05933348 -0.02945494 0.00062095
0.05571242 -0.03356318 -0.00004201
0.04883560 -0.03089884 0.00028717
0.07372759 -0.03563887 0.00109263
0.05938633 -0.03055493 0.00075394
0.06257137 -0.03123011 0.00081831
0.06970861 -0.03689249 0.00059974
0.05106112 -0.02385045 0.00059336
0.06556902 -0.03029124 0.00090036
0.05408163 -0.02943381 0.00066391
0.06275246 -0.03360308 0.00048170
0.06447481 -0.03666420 0.00014171
0.06235193 -0.02810773 0.00078920
0.05717899 -0.03808235 -0.00081246
0.06288994 -0.03439537 0.00062454
0.04805940 -0.02853638 0.00055447
0.04460306 -0.03223031 -0.00030038
0.06204922 -0.03279091 0.00052503
0.05127313 -0.02402868 0.00045708
0.04866550 -0.02303902 0.00058455
0.04221933 -0.02401367 0.00038626
0.05392664 -0.02850628 0.00045815
0.06760643 -0.03844925 0.00009748
0.06854804 -0.03227512 0.00097231
0.07240134 -0.03463399 0.00108177
0.05233527 -0.02635908 0.00048865
0.04977463 -0.03269449 0.00001288
0.05770277 -0.03639960 -0.00045162
0.06405068 -0.03282346 0.00064784
0.07155468 -0.03408587 0.00106477
0.06910209 -0.04001070 -0.00010034
0.06741713 -0.03317670 0.00083166
0.04966077 -0.03256245 0.00003248
0.07346540 -0.04387379 -0.00039146
0.06234959 -0.03989772 -0.00067462
0.07237584 -0.04244363 -0.00008527
0.06503168 -0.03995426 -0.00058804
0.06575405 -0.03415140 0.00080027
0.04215776 -0.03059320 -0.00019147
0.06345999 -0.02972304 0.00079548
0.04992455 -0.03282250 -0.00000361
0.05058082 -0.02564506 0.00046343
0.06587460 -0.03304608 0.00086673
0.06428897 -0.03039129 0.00086710
0.05584137 -0.02389161 0.00052991
0.06671345 -0.04091487 -0.00065369
0.05424881 -0.02286245 0.00045821
0.05566197 -0.00438139 0.00035856
0.07808722 -0.02001206 -0.00104735
0.07399689 -0.01415924 0.00035006
0.07658600 -0.00979874 0.00102061
0.05864382 -0.00497576 0.00045762
0.06245487 -0.01812959 -0.00068220
0.06766468 -0.00779753 0.00079136
0.04868235 -0.01141619 0.00064695
0.08134535 -0.01939967 -0.00063247
0.05160694 -0.00591189 0.00049904
0.05722561 -0.00749484 0.00048329
0.05003702 -0.00344289 0.00014046
0.08114682 -0.01206431 0.00096710
0.05294720 -0.00720709 0.00060870
0.05157053 -0.00969540 0.00039786
0.07404877 -0.01495507 0.00018777
0.06764148 -0.00946302 0.00080622
0.05606496 -0.01706694 -0.00032931
0.05242150 -0.01020025 0.00038114
0.07072186 -0.01733324 -0.00051120
0.05570149 -0.01119942 0.00064205
0.05837775 -0.00675308 0.00059892
0.05717391 -0.00964598 0.00045457
0.06244737 -0.01417443 0.00035105
0.05379814 -0.00369336 0.00025237
0.05916747 -0.00625159 0.00057152
0.08048081 -0.01776157 -0.00032444
0.05988882 -0.01312631 0.00048276
0.05488870 -0.01313674 0.00045868
0.05424218 -0.01137350 0.00031342
0.06656308 -0.01183295 0.00047484
0.06252813 -0.01259595 0.00028981
0.07009492 -0.01440819 0.00044423
0.07277989 -0.01903508 -0.00078339
0.06058871 -0.01234614 0.00057896
0.08042469 -0.01159613 0.00099501
0.05436021 -0.01025864 0.00068001
0.08102940 -0.01096000 0.00110952
0.06373480 -0.01700422 -0.00027126
0.07588943 -0.00958070 0.00100320
0.07129210 -0.01520715 0.00004001
0.07513853 -0.01923469 -0.00095123
0.06231133 -0.00595046 0.00059790
0.05638011 -0.01660126 -0.00041036
0.07854194 -0.01641362 -0.00000137
0.07869869 -0.01516300 0.00054353
0.06798654 -0.00787217 0.00080020
