ply
format ascii 1.0
element vertex 1396
property float x
property float y
property float z
end_header
0.04981300 -0.05270189 0.00080162
0.04487331 -0.05879607 0.00006475
0.04482904 -0.04810851 0.00057269
0.03891998 -0.05473301 -0.00022634
0.04289104 -0.04927488 0.00069212
0.03740741 -0.03661442 0.00008781
0.04246126 -0.05956593 -0.00060241
0.04354471 -0.05777524 -0.00026352
0.04878008 -0.06487541 -0.00063070
0.04469023 -0.04580276 0.00053453
0.05378371 -0.06798463 0.00010273
0.04255015 -0.04242062 0.00036162
0.04825819 -0.05477494 0.00065116
0.05022800 -0.06684601 -0.00053334
0.04495834 -0.05837106 0.00015281
0.04335381 -0.04355529 0.00041785
0.04981418 -0.05703264 0.00067028
0.03782499 -0.04941857 0.00012089
0.04864798 -0.06682924 -0.00104435
0.04568472 -0.06318319 -0.00076364
0.05329183 -0.06395602 0.00065236
0.04641823 -0.05426643 0.00071571
0.03801285 -0.05552794 -0.00063590
0.04474052 -0.05237734 0.00049946
0.04236087 -0.04935946 0.00047486
0.05034220 -0.05567865 0.00077427
0.04955406 -0.05936573 0.00045456
0.04288471 -0.04341299 0.00040731
0.04414754 -0.04714477 0.00054259
0.04252614 -0.05274794 0.00053818
0.04494555 -0.04735527 0.00056256
0.05055569 -0.06782761 -0.00089955
0.03352409 -0.04990326 -0.00034998
0.04504923 -0.04595278 0.00052725
0.03368121 -0.04316423 0.00031267
0.04496111 -0.05538286 0.00053605
0.05478822 -0.06759821 0.00039158
0.04989488 -0.05798598 0.00061672
0.04498224 -0.05573533 0.00025038
0.03414614 -0.04241972 0.00066336
0.05434439 -0.06673414 0.00044924
0.03874532 -0.04227439 0.00039581
0.04841869 -0.06374587 -0.00021521
0.03971421 -0.04148173 0.00045018
0.03566052 -0.04825950 0.00035230
0.03905514 -0.04152386 0.00036138
0.04662085 -0.06443232 -0.00097128
0.04228130 -0.04983388 0.00067275
0.03131546 -0.04821980 -0.00027555
0.03107502 -0.04593292 -0.00007811
0.03946753 -0.03842451 0.00015279
0.03750692 -0.05198650 0.00005073
0.04411512 -0.05571847 0.00040711
0.05738961 -0.06522658 0.00094709
0.03748796 -0.03821135 0.00021231
0.05826074 -0.06470583 0.00111755
0.05807857 -0.06444683 0.00111298
0.04756301 -0.05356922 0.00077445
0.05084724 -0.05416990 0.00085168
0.05048851 -0.06419890 0.00014317
0.05436238 -0.06743130 0.00011857
0.02843074 -0.04527950 -0.00005152
0.03536398 -0.04518993 0.00059312
0.04804386 -0.05086993 0.00073653
0.05453040 -0.06761950 0.00012002
0.03648651 -0.05390174 -0.00055770
0.05012343 -0.05314243 0.00081698
0.05009578 -0.06235521 0.00038139
0.04097996 -0.05868530 -0.00077384
0.04451868 -0.05234020 0.00048475
0.05094199 -0.06216443 0.00032162
0.04971281 -0.05959850 0.00045122
0.03209110 -0.04245113 0.00028284
0.04299634 -0.05794129 -0.00038564
0.05222091 -0.05616711 0.00091613
0.04479764 -0.06175073 -0.00078325
0.03205011 -0.04835711 -0.00027232
0.04221186 -0.05185707 0.00057972
0.02845802 -0.04412982 -0.00002680
0.04878953 -0.06462880 -0.00033550
0.05424274 -0.06041344 0.00096693
0.04709709 -0.06390994 -0.00078246
0.03586638 -0.04107758 0.00039049
0.04379175 -0.05751035 -0.00017735
0.03434185 -0.04900528 0.00010573
0.04018439 -0.05274426 -0.00000250
0.05201275 -0.06617524 0.00007732
0.04330608 -0.04584882 0.00050070
0.04488672 -0.05479199 0.00057916
0.04333174 -0.05722791 -0.00020678
0.04480932 -0.05252414 0.00049704
0.03582128 -0.03835800 0.00028972
0.04326531 -0.05013660 0.00069399
0.03339112 -0.04133967 0.00037191
0.04006617 -0.04110906 0.00039658
0.04472689 -0.04549585 0.00050961
0.03102185 -0.04806533 -0.00023739
0.04414558 -0.06096036 -0.00055475
0.05812389 -0.06496309 0.00109401
0.04811018 -0.05946915 0.00023277
0.04102000 -0.04070696 0.00029681
0.03826594 -0.03992468 0.00041517
0.03383883 -0.03982296 0.00065433
0.02848634 -0.04534816 -0.00006740
0.04052585 -0.05070891 0.00053808
0.04159237 -0.04106957 0.00029220
0.05262188 -0.05669034 0.00093020
0.05727834 -0.06549439 0.00098060
0.03537832 -0.04075177 0.00038820
0.04312133 -0.06087848 -0.00087169
0.04418045 -0.04645918 0.00052775
0.04997981 -0.06824258 -0.00107873
0.05023821 -0.05604326 0.00075317
0.04859470 -0.06282927 -0.00023867
0.03963114 -0.05530124 -0.00021338
0.05234032 -0.06437115 0.00024031
0.04250620 -0.04503377 0.00047125
0.03525514 -0.03811089 0.00029731
0.03259408 -0.04497377 0.00044740
0.05515894 -0.06159769 0.00094456
0.03246393 -0.04642226 0.00026802
0.04572930 -0.04754109 0.00061205
0.04892460 -0.06446319 -0.00026241
0.05104650 -0.05826624 0.00071516
0.03719133 -0.03747717 0.00016994
0.04888167 -0.05782042 0.00070486
0.04785355 -0.05771521 0.00040445
0.04659965 -0.05451278 0.00053040
0.05098781 -0.06786361 -0.00060266
0.05018819 -0.06373947 0.00016868
0.04434203 -0.06091225 -0.00070304
0.04152125 -0.04335867 0.00041074
0.03877273 -0.03743755 0.00011646
0.03725331 -0.04114904 0.00037774
0.03839026 -0.04021999 0.00031028
0.05546194 -0.06265265 0.00097292
0.03785356 -0.04963264 0.00040902
0.05825483 -0.06469742 0.00111741
0.04817967 -0.06633224 -0.00103137
0.03731670 -0.04999447 0.00031361
0.04189619 -0.05818084 -0.00060913
0.05175518 -0.06033916 0.00064165
0.03063528 -0.04765148 -0.00021235
0.03057430 -0.04758618 -0.00020837
0.03171213 -0.04880396 -0.00028133
0.04681860 -0.06288863 -0.00062425
0.03598859 -0.04639204 0.00023808
0.04284586 -0.05864921 -0.00053865
0.04670015 -0.04940894 0.00064407
0.05031276 -0.06562496 -0.00019943
0.04846973 -0.05836405 0.00062705
0.03825764 -0.03864381 0.00021282
0.02991744 -0.04688259 -0.00016501
0.04905742 -0.05408483 0.00072926
0.03492485 -0.04566596 0.00022042
0.03615749 -0.05355100 -0.00054019
0.04918149 -0.05668982 0.00063172
0.04317434 -0.05766073 -0.00003234
0.03926859 -0.04797586 0.00062381
0.03859997 -0.05495171 -0.00033169
0.05306188 -0.06279199 0.00057579
0.04318856 -0.05822752 -0.00040386
0.03770228 -0.04316004 0.00041608
0.04649883 -0.06230495 -0.00056847
0.05775293 -0.06398385 0.00110455
0.03554361 -0.05289638 -0.00050693
0.04707486 -0.06066374 -0.00013517
0.05205593 -0.06559555 -0.00003775
0.03969642 -0.05063987 0.00018355
0.03769549 -0.04212622 0.00040051
0.04704109 -0.04877150 0.00065187
0.04955566 -0.06718601 -0.00083095
0.05161931 -0.06333044 0.00026958
0.02848536 -0.04534712 -0.00006733
0.05687954 -0.06274209 0.00108041
0.05290944 -0.06198187 0.00078678
0.04852738 -0.06670125 -0.00104105
0.05791558 -0.06421511 0.00110880
0.05415325 -0.06502333 0.00047323
0.04295931 -0.05153631 0.00064418
0.05407327 -0.06378511 0.00076654
0.05046782 -0.06464692 0.00005091
0.03966070 -0.05480113 -0.00037482
0.04639330 -0.05186069 0.00074823
0.04549310 -0.04756534 0.00057949
0.05171333 -0.05868692 0.00086213
0.03684898 -0.04351565 0.00065730
0.03858490 -0.05321979 0.00000201
0.05003211 -0.05517185 0.00076714
0.04355069 -0.05038240 0.00069793
0.03543633 -0.05085188 -0.00030661
0.05164421 -0.06726893 -0.00049938
0.03489482 -0.04452003 0.00060917
0.05286330 -0.06361922 0.00063181
0.04335480 -0.06120942 -0.00087085
0.03668947 -0.04261856 0.00064625
0.04326049 -0.05266259 0.00035476
0.05357852 -0.06710677 0.00023353
0.04697504 -0.06030296 0.00017521
0.03137452 -0.04430446 0.00010174
0.03771044 -0.04946868 0.00010434
0.05627218 -0.06647810 0.00078309
0.04128273 -0.04514858 0.00046765
0.05204862 -0.06800996 -0.00057430
0.04895039 -0.06279141 0.00009970
0.03251440 -0.04653506 0.00025803
0.05372418 -0.05899368 0.00096748
0.03923572 -0.04920292 0.00026965
0.03913395 -0.05492057 -0.00022599
0.05562273 -0.06399846 0.00091353
0.04995092 -0.06199717 0.00017429
0.03172002 -0.04537811 0.00033154
0.04840485 -0.06526560 -0.00060151
0.05339216 -0.06507133 0.00032866
0.04048283 -0.03950615 0.00020851
0.04542229 -0.05878658 0.00016181
0.04281627 -0.05848729 -0.00026763
0.04296060 -0.06079059 -0.00085557
0.05194243 -0.06451803 0.00036609
0.03477327 -0.04864227 0.00021050
0.04711497 -0.05519041 0.00071844
0.04335804 -0.05542311 0.00034828
0.03636462 -0.05137298 -0.00001011
0.04593148 -0.04720016 0.00058561
0.03894000 -0.04737214 0.00063397
0.04392091 -0.04834870 0.00055070
0.05261413 -0.05935272 0.00089597
0.05360364 -0.05911121 0.00095880
0.04810743 -0.05522357 0.00061863
0.03949957 -0.03812230 0.00013145
0.05330820 -0.06483636 0.00034910
0.04109235 -0.05610798 -0.00037756
0.04684995 -0.06325820 -0.00047602
0.03928354 -0.04088045 0.00032382
0.04733838 -0.06466910 -0.00089267
0.04374390 -0.05964276 -0.00056748
0.05537475 -0.06733330 0.00054150
0.04569811 -0.04686986 0.00057121
0.04572129 -0.05317983 0.00071692
0.03182844 -0.04291100 0.00057747
0.05590987 -0.06136349 0.00105094
0.04848815 -0.06665963 -0.00103997
0.04773052 -0.04974844 0.00069123
0.04888832 -0.05897970 0.00061699
0.05220154 -0.06734300 -0.00013671
0.03388854 -0.04024213 0.00066308
0.04965958 -0.06698942 -0.00091059
0.05550118 -0.06078247 0.00103768
0.04872561 -0.05304717 0.00072927
0.04139046 -0.04664157 0.00048349
0.05651083 -0.06569814 0.00088339
0.03994189 -0.05105570 0.00016671
0.04101781 -0.04025973 0.00024930
0.05438589 -0.06695431 0.00021232
0.05067174 -0.06846889 -0.00101940
0.05035228 -0.06809988 -0.00086956
0.04144747 -0.04086529 0.00028147
0.03689118 -0.05104020 -0.00017523
0.05137443 -0.05598874 0.00088523
0.04853581 -0.06119445 0.00029876
0.04443908 -0.06177682 -0.00084743
0.03990666 -0.04768152 0.00065362
0.04607167 -0.06032738 0.00000370
0.04038703 -0.04024749 0.00029447
0.04240420 -0.04513292 0.00057222
0.04158787 -0.05094251 0.00033582
0.04247336 -0.04452610 0.00045408
0.03921143 -0.03771707 0.00010835
0.05703647 -0.06635530 0.00088973
0.05128295 -0.06229272 0.00056783
0.04825208 -0.05173625 0.00076335
0.04039990 -0.04414302 0.00059185
0.05220926 -0.06749679 -0.00041154
0.04094333 -0.05613081 -0.00014155
0.03993324 -0.05565840 -0.00047425
0.04836760 -0.05397703 0.00079488
0.04885548 -0.06054671 0.00044111
0.03765867 -0.03820741 0.00029827
0.05117837 -0.06660355 -0.00045936
0.04788178 -0.05152498 0.00075570
0.04342826 -0.05660911 -0.00009199
0.04861976 -0.06488366 -0.00066848
0.05067206 -0.05610200 0.00086000
0.05198479 -0.05578532 0.00090309
0.04875052 -0.06017472 0.00047334
0.03816474 -0.04531980 0.00040723
0.04018704 -0.04358795 0.00057047
0.03853672 -0.04811057 0.00058294
0.03302801 -0.04629635 0.00002169
0.03316021 -0.04133555 0.00036718
0.03785767 -0.04671275 0.00062038
0.04163569 -0.05880299 -0.00075136
0.05311279 -0.06342914 0.00050893
0.04675196 -0.05313438 0.00060741
0.04132039 -0.04466010 0.00058528
0.04316419 -0.04328748 0.00040475
0.02897315 -0.04452788 -0.00004497
0.04588746 -0.05463378 0.00066740
0.05380116 -0.05913022 0.00096947
0.04443990 -0.06047221 -0.00036694
0.04994228 -0.05924157 0.00051728
0.04085570 -0.05721101 -0.00038636
0.04724724 -0.06501040 -0.00086213
0.03489998 -0.04852131 0.00024122
0.03880092 -0.04647370 0.00065308
0.04771516 -0.06395116 -0.00066189
0.03244843 -0.04917006 -0.00032973
0.05188895 -0.06835908 -0.00070032
0.05144324 -0.06081594 0.00055773
0.04829672 -0.05546910 0.00062178
0.05275083 -0.06482801 0.00045927
0.05121674 -0.05493797 0.00087429
0.04499083 -0.04641442 0.00056459
0.05430585 -0.06565662 0.00059640
0.05451040 -0.06231149 0.00091135
0.05476900 -0.06581232 0.00064692
0.03095349 -0.04625320 -0.00011822
0.04915224 -0.05461607 0.00081571
0.05662591 -0.06302080 0.00105141
0.05151357 -0.06855261 -0.00084237
0.05642866 -0.06370925 0.00100371
0.05281623 -0.05696647 0.00093823
0.04051143 -0.05599036 -0.00019211
0.05378054 -0.05985611 0.00089845
0.04137161 -0.04703869 0.00066881
0.05158590 -0.06567546 -0.00015949
0.05021276 -0.05872272 0.00059517
0.04924482 -0.05189572 0.00077277
0.03588984 -0.04578820 0.00058316
0.04183965 -0.04974405 0.00066041
0.03466018 -0.05145678 -0.00030139
0.04942456 -0.05233915 0.00077784
0.04705982 -0.06368584 -0.00074271
0.05545179 -0.06071227 0.00103605
0.04104459 -0.05824001 -0.00059668
0.03216359 -0.04796215 -0.00000130
0.05567631 -0.06149052 0.00103288
0.03764349 -0.05117761 -0.00010689
0.03610223 -0.04444762 0.00035696
0.04623452 -0.05584158 0.00061690
0.04432187 -0.04492318 0.00048311
0.05345326 -0.06669131 0.00005842
0.03645983 -0.04358466 0.00039381
0.05071161 -0.06446191 -0.00010908
0.03471268 -0.04021817 0.00063574
0.03358586 -0.04546311 0.00014417
0.03993741 -0.03873831 0.00016610
0.05593393 -0.06149715 0.00105129
0.04782641 -0.06000599 0.00010919
0.04888333 -0.06200820 -0.00002708
0.03731398 -0.04485829 0.00065523
0.03937211 -0.05052048 0.00016257
0.04198383 -0.04568488 0.00048423
0.03942704 -0.04345016 0.00059345
0.03352475 -0.04784885 0.00018258
0.03550215 -0.04840590 0.00000565
0.02835734 -0.04520974 -0.00005839
0.04780848 -0.06017628 0.00033425
0.05432841 -0.06066796 0.00090961
0.03660268 -0.04520048 0.00034717
0.05343049 -0.05920872 0.00089740
0.03245833 -0.04340769 0.00023842
0.04604213 -0.06085905 -0.00010807
0.05032746 -0.06031713 0.00065298
0.04415093 -0.06158063 -0.00072235
0.04465579 -0.05155556 0.00071224
0.03317732 -0.04474858 0.00050786
0.03730596 -0.04108677 0.00056042
0.03459409 -0.04952940 -0.00021731
0.04538695 -0.05974994 -0.00028666
0.05370916 -0.06391971 0.00054302
0.04595447 -0.06311319 -0.00066862
0.03871816 -0.04303345 0.00060019
0.04468732 -0.05914131 -0.00030409
0.05224364 -0.06602160 -0.00008078
0.05052983 -0.05371928 0.00083665
0.05326563 -0.05831708 0.00095286
0.04303032 -0.04357337 0.00043729
0.05276365 -0.06404390 0.00056758
0.04306559 -0.06090214 -0.00085968
0.04295884 -0.05636203 -0.00012729
0.03327342 -0.04557310 0.00043785
0.05288085 -0.06831505 -0.00043412
0.04130536 -0.04650503 0.00048157
0.03838769 -0.04341238 0.00042269
0.04159692 -0.05318420 0.00011927
0.04296724 -0.04300939 0.00039103
0.05231119 -0.06955279 -0.00070351
0.03140221 -0.04792885 -0.00025841
0.05565615 -0.06322827 0.00088555
0.04660233 -0.04815001 0.00062610
0.04674430 -0.04835109 0.00063450
0.05113176 -0.05708872 0.00078408
0.04022493 -0.05648032 -0.00035034
0.03242246 -0.04106333 0.00067826
0.03691147 -0.04765815 0.00051431
0.04841385 -0.06605700 -0.00096826
0.04047381 -0.05622560 -0.00024729
0.04397076 -0.05959471 -0.00051796
0.05147705 -0.05743606 0.00079876
0.04399644 -0.06189103 -0.00089503
0.04549211 -0.06331654 -0.00086647
0.03435251 -0.05108252 -0.00027431
0.04292480 -0.05639792 -0.00013825
0.04292235 -0.05831396 -0.00020947
0.03685436 -0.05188709 -0.00002742
0.03344368 -0.04382518 0.00058944
0.03994567 -0.05559570 -0.00021586
0.03074308 -0.04769517 -0.00023819
0.03500718 -0.04610166 0.00019109
0.04427060 -0.05138462 0.00051223
0.05087275 -0.05631156 0.00086616
0.03920770 -0.04267638 0.00040454
0.03856136 -0.05451704 -0.00047718
0.04296514 -0.04526948 0.00048096
0.04088982 -0.05761629 -0.00066104
0.04766813 -0.06323354 -0.00027216
0.04982835 -0.05838485 0.00074691
0.05315779 -0.06309313 0.00072234
0.04491616 -0.05623468 0.00018209
0.05107583 -0.06719329 -0.00062258
0.03857349 -0.04231518 0.00056947
0.04476033 -0.06270233 -0.00092267
0.05130835 -0.06965237 -0.00110934
0.05325639 -0.05994947 0.00083798
0.05214843 -0.06414297 0.00024054
0.05258186 -0.06591377 0.00024941
0.04687006 -0.06494224 -0.00099264
0.04228765 -0.05030937 0.00066019
0.04085207 -0.04615590 0.00065591
0.04015155 -0.04626993 0.00045316
0.05536354 -0.06648885 0.00048145
0.03782896 -0.03707062 0.00010700
0.03750552 -0.05214760 -0.00025643
0.04396326 -0.04441632 0.00045925
0.05223608 -0.06498907 0.00011453
0.03830372 -0.04207701 0.00039412
0.05126393 -0.05769379 0.00076741
0.04600377 -0.05200652 0.00059608
0.04937801 -0.06280859 0.00018002
0.03519068 -0.04004792 0.00060893
0.04333979 -0.05622106 -0.00004676
0.03599301 -0.05337562 -0.00053136
0.03366261 -0.03998012 0.00066377
0.04510715 -0.04745302 0.00056811
0.03821485 -0.05408871 -0.00045528
0.03449911 -0.05178191 -0.00044850
0.03901760 -0.03778106 0.00011703
0.05791994 -0.06458700 0.00109389
0.03934784 -0.04906647 0.00028944
0.05097587 -0.06165382 0.00039511
0.04842482 -0.06527646 -0.00059904
0.05504471 -0.06387653 0.00074616
0.05532205 -0.06587083 0.00071899
0.05415754 -0.06070079 0.00088873
0.04622910 -0.06426183 -0.00097238
0.04434158 -0.05656969 0.00005454
0.04374909 -0.05479475 0.00046726
0.04397533 -0.04443337 0.00046006
0.04541136 -0.05698447 0.00015633
0.05374051 -0.06550542 0.00052686
0.04946670 -0.05221051 0.00078415
0.03184333 -0.04805955 -0.00025324
0.03700521 -0.03771174 0.00030274
0.03819501 -0.04603366 0.00064982
0.04001387 -0.04819265 0.00039018
0.05173634 -0.05643220 0.00089818
0.05361969 -0.06000111 0.00093904
0.04860784 -0.05645932 0.00075566
0.05672725 -0.06421405 0.00100409
0.03302470 -0.04597821 0.00005398
0.05078407 -0.06312786 0.00014688
0.03814554 -0.04551872 0.00065652
0.03849165 -0.04249881 0.00058299
0.04009698 -0.04023218 0.00031322
0.04072528 -0.04415927 0.00058051
0.04345544 -0.05517728 0.00039085
0.04744823 -0.06044674 0.00023351
0.05366612 -0.06398727 0.00052782
0.04433466 -0.04637827 0.00058121
0.04394875 -0.04439581 0.00045827
0.03799777 -0.04816717 0.00054794
0.04316499 -0.04328862 0.00040480
0.04477239 -0.04866577 0.00067942
0.03731828 -0.04399824 0.00065732
0.03028088 -0.04727193 -0.00018911
0.04560895 -0.05672685 0.00047198
0.02843764 -0.04388725 -0.00000741
0.03948751 -0.05426550 -0.00031493
0.03526202 -0.04402016 0.00033964
0.03775684 -0.04840925 0.00021092
0.05375430 -0.06482043 0.00043182
0.04325518 -0.04931168 0.00069620
0.05665737 -0.06502496 0.00086220
0.04463993 -0.04727085 0.00062195
0.03634423 -0.05375008 -0.00055016
0.04609474 -0.06411920 -0.00096802
0.04554115 -0.05167945 0.00057860
0.03385342 -0.04646287 0.00006933
0.05298042 -0.05996869 0.00089904
0.04224532 -0.06003048 -0.00082701
0.04893884 -0.06713791 -0.00105217
0.04986306 -0.05483051 0.00083593
0.05240773 -0.06790122 -0.00045663
0.03880289 -0.03714276 0.00007520
0.05192213 -0.06885539 -0.00081433
0.03696861 -0.05296095 -0.00043527
0.04385703 -0.04440883 0.00045481
0.04643141 -0.05254308 0.00074993
0.04955649 -0.06061647 0.00030659
0.03933197 -0.03788658 0.00011804
0.05532142 -0.06400639 0.00077215
0.03724306 -0.04476546 0.00065559
0.04983376 -0.06366349 -0.00014105
0.05630710 -0.06237487 0.00105069
0.04309269 -0.05837867 -0.00044750
0.05081774 -0.06294756 0.00018249
0.03454485 -0.04211796 0.00066806
0.03433134 -0.04766945 0.00029293
0.03155841 -0.04704639 -0.00016499
0.04265620 -0.06046713 -0.00084355
0.04489057 -0.04797270 0.00057233
0.03945713 -0.04666335 0.00066078
0.04300112 -0.04946919 0.00069336
0.04562953 -0.06089609 -0.00045810
0.04630924 -0.05203005 0.00061274
0.04792360 -0.06560443 -0.00096968
0.05632936 -0.06533066 0.00089221
0.04092171 -0.04503850 0.00046281
0.03455407 -0.05034856 -0.00009314
0.05635013 -0.06339519 0.00101218
0.03998267 -0.04191952 0.00046872
0.03924396 -0.04417427 0.00043703
0.05072258 -0.06016057 0.00070716
0.04920854 -0.05369413 0.00081248
0.03321668 -0.04987340 -0.00021229
0.05561034 -0.06236887 0.00094531
0.04378971 -0.05442951 0.00024580
0.04250813 -0.05288203 0.00052549
0.03505054 -0.04079724 0.00039016
0.04571004 -0.06361198 -0.00089777
0.04741990 -0.06204853 -0.00032769
0.03157451 -0.04304637 0.00055509
0.03472273 -0.04454477 0.00028581
0.03981229 -0.04777809 0.00039765
0.03830989 -0.04450846 0.00042405
0.04880698 -0.05127466 0.00074989
0.04734800 -0.05842866 0.00025342
0.05354878 -0.06422427 0.00047818
0.04862043 -0.06469136 -0.00062564
0.03816225 -0.05568705 -0.00064329
0.04731543 -0.05519314 0.00072991
0.05563447 -0.06097196 0.00104206
0.04392710 -0.04589004 0.00050850
0.04655429 -0.06460705 -0.00098277
0.04449471 -0.06206015 -0.00076825
0.04462117 -0.06200814 -0.00085979
0.04781225 -0.05608186 0.00054026
0.04217415 -0.05888993 -0.00069015
0.04685387 -0.06079998 -0.00020195
0.03644173 -0.05373108 -0.00049513
0.04929019 -0.05830884 0.00070759
0.04208104 -0.04795671 0.00067971
0.05035140 -0.05350612 0.00083166
0.03841763 -0.04027980 0.00043506
0.05377084 -0.05832295 0.00097605
0.04368283 -0.06037552 -0.00071570
0.03681894 -0.04441125 0.00065582
0.03616300 -0.03785726 0.00038896
0.04767173 -0.06579315 -0.00101678
0.04411842 -0.04463560 0.00046962
0.03582324 -0.04350027 0.00037833
0.04015914 -0.05643997 -0.00035453
0.03999061 -0.04460264 0.00044847
0.03062178 -0.04501674 0.00027782
0.04155097 -0.04946217 0.00065827
0.04862631 -0.05505582 0.00066745
0.04783030 -0.05133953 0.00069749
0.04241443 -0.05728531 -0.00009905
0.04085559 -0.05441133 -0.00014437
0.04403032 -0.04451109 0.00046374
0.03930302 -0.04422689 0.00043810
0.05249902 -0.06314933 0.00044600
0.04413795 -0.06196883 -0.00085420
0.05703171 -0.06409391 0.00099539
0.05537290 -0.06767279 0.00029370
0.03622649 -0.05279078 -0.00048604
0.05672413 -0.06487345 0.00088588
0.05321244 -0.05928082 0.00093325
0.05490343 -0.06499073 0.00060272
0.03758836 -0.04002087 0.00032221
0.03661047 -0.05252249 -0.00041240
0.05490417 -0.06002075 0.00101016
0.05429691 -0.05907063 0.00099573
0.03763945 -0.03680156 0.00009281
0.04338368 -0.05110097 0.00046595
0.05553400 -0.06353769 0.00084375
0.05680212 -0.06298228 0.00105062
0.04848504 -0.06558869 -0.00085449
0.03785049 -0.04347728 0.00064176
0.04698399 -0.06506318 -0.00099616
0.02765357 -0.04445427 -0.00000862
0.04767831 -0.06410911 -0.00048482
0.03994430 -0.05342837 0.00016707
0.04042443 -0.05809450 -0.00074943
0.04956789 -0.06780546 -0.00106850
0.04204677 -0.05962311 -0.00072964
0.04307254 -0.05602002 -0.00005751
0.05156413 -0.06910491 -0.00096333
0.05235302 -0.06805593 -0.00027264
0.05236522 -0.06465895 0.00041862
0.04304495 -0.04864990 0.00068921
0.04844289 -0.05940668 0.00052251
0.04767953 -0.06427696 -0.00074000
0.04705281 -0.06504653 -0.00100448
0.03812493 -0.03963565 0.00028397
0.05453367 -0.06473126 0.00073357
0.04291553 -0.04293639 0.00038741
0.03869604 -0.04997570 0.00014980
0.05100783 -0.05439790 0.00085917
0.05157648 -0.05520540 0.00088508
0.05204559 -0.05813030 0.00089451
0.04372090 -0.05107140 0.00048987
0.05036181 -0.06261279 0.00038705
0.05101920 -0.05441405 0.00085970
0.05117181 -0.06515196 -0.00014565
0.04264786 -0.04346769 0.00041017
0.03659767 -0.03875963 0.00028414
0.04710359 -0.05757597 0.00055455
0.05213162 -0.05599388 0.00090944
0.04796984 -0.06426746 -0.00045111
0.04152198 -0.04729924 0.00067211
0.04717585 -0.06436009 -0.00086081
0.04587495 -0.04712014 0.00058213
0.04426500 -0.05505124 0.00023612
0.03491683 -0.04391737 0.00063545
0.03879780 -0.04437035 0.00043311
0.03709120 -0.05109929 0.00013441
0.03955270 -0.04717546 0.00040836
0.04517505 -0.04612973 0.00053837
0.03285050 -0.04038076 0.00068455
0.05497910 -0.06330311 0.00079106
0.04167664 -0.04118838 0.00029841
0.05152432 -0.05602990 0.00089051
0.04241427 -0.05461738 0.00004528
0.03161407 -0.04815971 -0.00011882
0.05031629 -0.06400786 0.00014432
0.04292734 -0.04945122 0.00069230
0.04796628 -0.05098021 0.00070450
0.04030051 -0.05011814 0.00028762
0.04335101 -0.04585728 0.00050137
0.04269381 -0.05799654 -0.00018844
0.04115290 -0.04422490 0.00056737
0.04174214 -0.05600226 0.00002077
0.03650397 -0.04168332 0.00062382
0.03070708 -0.04758129 -0.00023731
0.04727728 -0.05093250 0.00073768
0.03647424 -0.05297071 -0.00029940
0.04234546 -0.05641802 -0.00023301
0.05555784 -0.06358466 0.00093282
0.04479144 -0.05031152 0.00071678
0.03479408 -0.05080478 -0.00014245
0.05318432 -0.06638680 0.00028532
0.03842115 -0.03665019 0.00004414
0.03440969 -0.04157407 0.00038520
0.04748382 -0.06009224 0.00029506
0.04166415 -0.04611215 0.00048643
0.05262166 -0.06303215 0.00066299
0.04860357 -0.05685541 0.00073782
0.03661676 -0.05404058 -0.00056456
0.03558173 -0.03935973 0.00055040
0.05338030 -0.05819931 0.00095994
0.05032969 -0.05426841 0.00081021
0.05582359 -0.06260063 0.00095476
0.05312674 -0.06196248 0.00080920
0.03788998 -0.04136420 0.00037537
0.05129520 -0.06744192 -0.00039948
0.04787936 -0.06601352 -0.00102281
0.03374507 -0.04800618 0.00018469
0.03986583 -0.04159639 0.00045017
0.05065667 -0.06669892 -0.00060850
0.03821107 -0.04622759 0.00064605
0.04760117 -0.05850106 0.00028137
0.05664231 -0.06427388 0.00099303
0.04600568 -0.05560701 0.00061445
0.04410338 -0.04461435 0.00046861
0.05137598 -0.06667388 -0.00042735
0.03454230 -0.05167157 -0.00038188
0.04216836 -0.05276557 0.00023215
0.03343013 -0.04280972 0.00064016
0.05247246 -0.06927821 -0.00057202
0.03593409 -0.04032459 0.00058719
0.03919288 -0.05394889 -0.00030647
0.05364886 -0.06580026 0.00026072
0.03983742 -0.05089651 0.00017215
0.04846130 -0.05796381 0.00065819
0.02755969 -0.04435345 -0.00000190
0.04831057 -0.06021405 0.00040547
0.03874031 -0.04015029 0.00040153
0.04034957 -0.05801487 -0.00074609
0.04613793 -0.05198091 0.00074441
0.03657727 -0.05315949 -0.00050183
0.04890856 -0.06586522 -0.00062920
0.04180437 -0.05073098 0.00062007
0.03037548 -0.04537487 -0.00006198
0.05691587 -0.06565723 0.00093128
0.03644779 -0.04561739 0.00061496
0.05540701 -0.06664869 0.00063993
0.04491779 -0.05854302 0.00011689
0.03654938 -0.04387936 0.00065869
0.03657648 -0.04289169 0.00040405
0.05696183 -0.06642437 0.00087495
0.05469342 -0.06450213 0.00077508
0.04832076 -0.05886675 0.00056463
0.05073880 -0.05401594 0.00084658
0.05256954 -0.06054692 0.00072130
0.04655651 -0.05210977 0.00062463
0.04447631 -0.05586532 0.00016756
0.04169555 -0.05165100 0.00028814
0.05015101 -0.05318157 0.00081833
0.05047482 -0.06724813 -0.00057568
0.04045746 -0.05455911 -0.00022356
0.04116428 -0.04557961 0.00063227
0.03220311 -0.04085855 0.00035972
0.04788110 -0.06203403 -0.00023092
0.04005281 -0.05588661 -0.00025593
0.05169345 -0.05785483 0.00088208
0.04883731 -0.05707044 0.00057293
0.03238690 -0.04328842 0.00057703
0.03563233 -0.04862310 0.00030586
0.04457512 -0.05486225 0.00029424
0.03052583 -0.04241390 0.00021267
0.04866375 -0.06412614 -0.00024556
0.05038094 -0.06433235 -0.00015521
0.05009979 -0.06091321 0.00035300
0.03531939 -0.04541273 0.00057828
0.04234327 -0.05628334 0.00007121
0.05033102 -0.06409589 -0.00011936
0.03119846 -0.04424265 0.00009662
0.03702513 -0.05225383 -0.00032828
0.04124358 -0.05265148 0.00042581
0.05691256 -0.06474517 0.00099135
0.03839651 -0.03657179 0.00004176
0.03995938 -0.05154143 0.00041212
0.04723499 -0.05794909 0.00053227
0.03970351 -0.04676027 0.00066295
0.03158862 -0.04713263 -0.00017225
0.05525445 -0.06397534 0.00087872
0.05479306 -0.06084349 0.00099082
0.03806295 -0.05558130 -0.00063838
0.04898808 -0.06164833 0.00030418
0.04645227 -0.04981286 0.00070424
0.03727976 -0.04829784 0.00017988
0.04478889 -0.05719612 0.00003298
0.03570584 -0.05009073 0.00010955
0.05438005 -0.06616882 0.00034446
0.02935330 -0.04627797 -0.00012704
0.04267402 -0.04348934 0.00044745
0.04718652 -0.05978381 0.00003354
0.03764637 -0.04612868 0.00063443
0.04054309 -0.05775607 -0.00072545
0.03721007 -0.03969209 0.00046939
0.03329757 -0.04178825 0.00035707
0.03231648 -0.04945029 -0.00031897
0.04339004 -0.05801933 -0.00033232
0.03089212 -0.04223085 0.00024303
0.02955212 -0.04649110 -0.00014050
0.05777349 -0.06401598 0.00110733
0.04398777 -0.04578885 0.00050612
0.04350946 -0.04922013 0.00053158
0.04292900 -0.05864885 -0.00052452
0.03620847 -0.03730835 0.00033107
0.05487432 -0.06795061 0.00034735
0.03242555 -0.04496987 0.00043534
0.03401871 -0.04460697 0.00024149
0.03457700 -0.04632508 0.00013929
0.04900086 -0.05349996 0.00073816
0.03509903 -0.04460632 0.00061242
0.04679444 -0.06252564 -0.00055356
0.04043239 -0.05063657 0.00053655
0.03791886 -0.03590104 0.00000188
0.05191009 -0.06162544 0.00053759
0.04256601 -0.04413645 0.00043922
0.05112213 -0.06002838 0.00059141
0.04862286 -0.06384060 -0.00044005
0.05225725 -0.05619059 0.00091155
0.05078938 -0.06513368 -0.00022799
0.04835991 -0.06305110 -0.00033262
0.03774520 -0.03900371 0.00037015
0.04948756 -0.06484461 -0.00021646
0.04653613 -0.06458777 -0.00098219
0.05186736 -0.06940794 -0.00096315
0.03609376 -0.05069637 -0.00021748
0.03630405 -0.04862298 0.00037238
0.04206028 -0.04289350 0.00043061
0.04816029 -0.05035766 0.00071505
0.04700120 -0.06304488 -0.00061926
0.04230242 -0.04895837 0.00068471
0.02787713 -0.04469431 -0.00002454
0.03977079 -0.05102520 0.00015179
0.05212151 -0.06871361 -0.00051397
0.03356839 -0.04559969 0.00013058
0.04489585 -0.06284625 -0.00092745
0.05182048 -0.06978658 -0.00094101
0.03904444 -0.04142950 0.00035720
0.04343064 -0.05946689 -0.00058937
0.03482270 -0.03963069 0.00037132
0.04654349 -0.05782497 0.00046250
0.05512710 -0.06025069 0.00102511
0.03769181 -0.03644207 0.00009501
0.04609250 -0.04994833 0.00071061
0.03734041 -0.05412510 -0.00039226
0.04985314 -0.05275884 0.00080362
0.03813614 -0.03620610 0.00002010
0.04809135 -0.05188121 0.00070759
0.05202967 -0.06873165 -0.00054599
0.04608590 -0.05783889 0.00014199
0.05063588 -0.05773645 0.00070680
0.05112200 -0.06532591 0.00005483
0.05476510 -0.06590904 0.00045654
0.03131416 -0.04477325 0.00036939
0.04804726 -0.05591308 0.00074397
0.03742592 -0.04949428 0.00007309
0.04591730 -0.06393082 -0.00096220
0.03522823 -0.05205051 -0.00032868
0.04047044 -0.05757462 -0.00070769
0.04768419 -0.05186032 0.00076227
0.04497474 -0.04584638 0.00052559
0.04462183 -0.06087120 -0.00042009
0.04226571 -0.04201925 0.00034128
0.04941556 -0.06303223 -0.00010748
0.04614723 -0.04894124 0.00062031
0.04342020 -0.06127890 -0.00087336
0.05598526 -0.06154477 0.00104612
0.04936590 -0.06092280 0.00023349
0.05721503 -0.06321909 0.00108995
0.04346376 -0.04768599 0.00066315
0.04259399 -0.04332848 0.00043861
0.04508960 -0.05698621 0.00037595
0.03710148 -0.05455713 -0.00058980
0.02967496 -0.04502987 0.00018192
0.04958597 -0.06209603 0.00009162
0.03564781 -0.04144298 0.00039526
0.04001314 -0.04327822 0.00056006
0.04458034 -0.05936342 -0.00036408
0.04047949 -0.05444660 0.00008451
0.04458423 -0.06251531 -0.00091641
0.03638687 -0.03791427 0.00037581
0.04085814 -0.05234805 0.00041806
0.05298391 -0.05982578 0.00090415
0.04744107 -0.05363934 0.00063586
0.05008357 -0.05522020 0.00084288
0.04687328 -0.06285227 -0.00036963
0.04608456 -0.05977238 0.00010835
0.05193367 -0.05718138 0.00084934
0.04287413 -0.03207068 0.00039823
0.05861424 -0.04792812 0.00081415
0.06559287 -0.05270627 0.00096617
0.05517204 -0.05149309 0.00006484
0.04938299 -0.03611318 0.00046323
0.03748982 -0.03718832 0.00053265
0.04489378 -0.03707963 0.00064677
0.06146441 -0.05581600 -0.00009019
0.05499690 -0.04447720 0.00062538
0.04945262 -0.03777467 0.00058192
0.04072817 -0.03363684 0.00037969
0.06091833 -0.05311622 0.00056163
0.06576115 -0.05184514 0.00106408
0.05941473 -0.05318466 0.00011745
0.05637968 -0.05593134 -0.00097802
0.04806379 -0.03853246 0.00064602
0.06109430 -0.05913032 -0.00090395
0.04385362 -0.03851504 0.00064260
0.04656498 -0.04163313 0.00029302
0.06480415 -0.05130901 0.00102502
0.05965360 -0.05536235 -0.00031873
0.05663972 -0.04283228 0.00074701
0.04753092 -0.04902150 -0.00068072
0.06585231 -0.05397700 0.00095106
0.06271046 -0.04875147 0.00097834
0.05097876 -0.05153996 -0.00079407
0.05300244 -0.03898703 0.00058892
0.04648343 -0.03366881 0.00035837
0.05558609 -0.04553603 0.00076167
0.04337755 -0.03684048 0.00065802
0.04781600 -0.03369481 0.00029408
0.05188043 -0.05168898 -0.00054230
0.04249570 -0.03682443 0.00066054
0.04682640 -0.04726901 -0.00046819
0.05850735 -0.04893627 0.00059770
0.06041186 -0.05899529 -0.00107623
0.03709223 -0.04083678 -0.00017111
0.05040111 -0.04603578 0.00012441
0.04241818 -0.03044370 0.00024293
0.04435695 -0.03128777 0.00021370
0.04824665 -0.03531017 0.00038154
0.04598048 -0.04751708 -0.00057933
0.05116612 -0.03707047 0.00048606
0.04677440 -0.04519049 0.00017032
0.04982835 -0.04957563 -0.00033455
0.05423878 -0.05115605 -0.00027710
0.05294432 -0.04696145 0.00026612
0.03999983 -0.04117786 -0.00010381
0.06073466 -0.05451925 0.00006582
0.05781411 -0.05284428 -0.00006933
0.04936781 -0.03568295 0.00040306
0.06209367 -0.05294538 0.00070901
0.04946521 -0.04835566 -0.00010481
0.06517960 -0.05380672 0.00080697
0.04398165 -0.04144463 0.00013359
0.05623952 -0.05012586 0.00044678
0.03925495 -0.04223938 -0.00008751
0.05112775 -0.04648846 0.00041627
0.06217734 -0.05105578 0.00086990
0.06099559 -0.05254239 0.00064386
0.03753390 -0.03588244 0.00029417
0.06080503 -0.04767224 0.00091169
0.05437489 -0.04883800 0.00042508
0.04395189 -0.02981284 0.00004581
0.04089710 -0.03718070 0.00063674
0.04906063 -0.04991770 -0.00070303
0.04318240 -0.04026399 0.00051691
0.05122304 -0.04416497 0.00063900
0.04204773 -0.03691984 0.00065816
0.05546135 -0.04490273 0.00076840
0.05945329 -0.05514603 -0.00004968
0.04447926 -0.03153083 0.00023534
0.04036269 -0.04372295 -0.00033732
0.04497914 -0.04204529 0.00044871
0.04463355 -0.04698763 -0.00054732
0.06475650 -0.05315699 0.00082853
0.04725561 -0.04148786 0.00034730
0.05605876 -0.05520571 -0.00090458
0.04324371 -0.04291424 0.00019126
0.05407188 -0.04000464 0.00063483
0.03971554 -0.03776570 0.00056971
0.04812508 -0.04477694 0.00006902
0.03759398 -0.04091346 0.00000910
0.06092929 -0.05899733 -0.00102545
0.03986452 -0.03476320 0.00067633
0.06303474 -0.05978799 -0.00063439
0.04338252 -0.04030177 0.00021080
0.05548642 -0.05089426 0.00022837
0.05895460 -0.04707774 0.00084955
0.04120283 -0.03207584 0.00030988
0.03673697 -0.03996097 0.00011112
0.06332520 -0.05583905 0.00023562
0.04665153 -0.04417598 0.00031533
0.05550011 -0.04485616 0.00063902
0.05859723 -0.05342920 0.00019137
0.05560545 -0.04456582 0.00065623
0.04437667 -0.03023891 0.00007449
0.05284382 -0.03876393 0.00057398
0.04895105 -0.03758750 0.00047224
0.04129031 -0.03550508 0.00038900
0.05086900 -0.04749268 0.00024127
0.06610456 -0.05298526 0.00103449
0.06169089 -0.05617426 0.00011193
0.04632875 -0.04408423 -0.00000562
0.06043542 -0.05130766 0.00072072
0.05299229 -0.04734878 0.00022049
0.06239146 -0.05188147 0.00070005
0.04317126 -0.04452585 -0.00034696
0.05480142 -0.04264348 0.00066167
0.06076682 -0.05101722 0.00077222
0.05546123 -0.05422105 -0.00057768
0.06514895 -0.05595316 0.00067607
0.04326475 -0.03852784 0.00063064
0.05902567 -0.05398870 -0.00011198
0.04208487 -0.04350589 -0.00003105
0.05566902 -0.05235650 -0.00004632
0.05090061 -0.04194231 0.00051157
0.04105053 -0.03714127 0.00033096
0.04691642 -0.03936039 0.00066453
0.05140249 -0.04463889 0.00037709
0.04335219 -0.02976229 0.00005501
0.04426118 -0.04670334 -0.00053014
0.04298955 -0.03426811 0.00057585
0.05707272 -0.05503386 -0.00048607
0.05857738 -0.05760146 -0.00103468
0.05503609 -0.04839883 0.00030477
0.03709400 -0.03659064 0.00023041
0.03609138 -0.03922583 -0.00004811
0.05110248 -0.04832975 0.00012214
0.05029756 -0.04114407 0.00050992
0.05916210 -0.05804574 -0.00104849
0.06380722 -0.05519925 0.00043077
0.04707680 -0.04801762 -0.00056998
0.04415308 -0.03001462 0.00005944
0.05300228 -0.04908194 0.00022772
0.05560309 -0.05434386 -0.00077929
0.06073650 -0.04825507 0.00089935
0.04956630 -0.04869768 -0.00042461
0.05764582 -0.05689359 -0.00101158
0.04833638 -0.03611484 0.00041872
0.04565396 -0.04408709 0.00023489
0.03759368 -0.04006823 0.00016507
0.05767819 -0.05684011 -0.00101851
0.04746233 -0.03938944 0.00066675
0.04725324 -0.04082652 0.00038974
0.04741398 -0.03405441 0.00035251
0.06240505 -0.05499988 0.00046213
0.05066159 -0.03952753 0.00053223
0.06090168 -0.05876004 -0.00081667
0.05132202 -0.04866036 0.00008793
0.04251248 -0.04383264 -0.00029487
0.05936787 -0.04750594 0.00085776
0.04663988 -0.04760894 -0.00054212
0.04803973 -0.03968236 0.00066998
0.05839831 -0.05553246 -0.00059398
0.05844104 -0.05362521 -0.00013193
0.04252406 -0.04040625 0.00046688
0.04936435 -0.04229363 0.00041660
0.04787971 -0.04946354 -0.00068790
0.06318796 -0.05314523 0.00064678
0.04698685 -0.04196535 0.00029222
0.06143673 -0.05555040 0.00020706
0.05301643 -0.05337418 -0.00087671
0.06065001 -0.04666289 0.00090991
0.05372690 -0.05298161 -0.00075110
0.06498679 -0.05105977 0.00104407
0.05650281 -0.05493915 -0.00057726
0.05606818 -0.05517049 -0.00074736
0.05275072 -0.04898736 0.00021267
0.04669565 -0.03884179 0.00066232
0.05811715 -0.04530467 0.00083244
0.04373349 -0.04413837 -0.00024623
0.05393302 -0.04296880 0.00061785
0.05780803 -0.04909948 0.00070158
0.04796211 -0.03820208 0.00063550
0.06543170 -0.05538175 0.00078082
0.06650710 -0.05517548 0.00080800
0.05093552 -0.05159557 -0.00080490
0.04830059 -0.03999206 0.00067265
0.05382556 -0.05212259 -0.00030486
0.06145928 -0.05400930 0.00049633
0.04712067 -0.04854084 -0.00064518
0.04728424 -0.03315981 0.00026161
0.06748803 -0.05359663 0.00110437
0.04378621 -0.03397957 0.00035536
0.05067161 -0.04367157 0.00064076
0.05062465 -0.03666760 0.00045888
0.06372422 -0.05529144 0.00040225
0.05512410 -0.05096220 -0.00010555
0.05599983 -0.05564262 -0.00096746
0.05467257 -0.05463363 -0.00092880
0.04147193 -0.03259603 0.00033106
0.04197142 -0.03274535 0.00051314
0.04582863 -0.04127009 0.00027678
0.03750865 -0.03763380 0.00048931
0.06151255 -0.04753709 0.00093959
0.04494071 -0.04387214 -0.00010218
0.04127189 -0.04299352 -0.00001898
0.05378105 -0.04398764 0.00057744
0.05168037 -0.04565027 0.00055484
0.05896899 -0.04495978 0.00084780
0.04705722 -0.03293148 0.00024758
0.05155141 -0.05225958 -0.00082707
0.05841516 -0.05636224 -0.00080174
0.05684795 -0.04322698 0.00077572
0.04822174 -0.04393010 0.00047510
0.05537682 -0.04132394 0.00069622
0.04112827 -0.04061495 0.00003389
0.05514228 -0.04559698 0.00074419
0.05249291 -0.05235628 -0.00078250
0.06153671 -0.05984990 -0.00109912
0.04974622 -0.03712345 0.00046532
0.04070123 -0.03354771 0.00062285
0.05902594 -0.04762736 0.00073771
0.04165962 -0.03857144 0.00058200
0.04947032 -0.05067532 -0.00075077
0.05176556 -0.04333794 0.00069463
0.06206858 -0.04910690 0.00089619
0.05730548 -0.05154279 0.00010512
0.05998723 -0.05199363 0.00040088
0.05708221 -0.04304938 0.00077138
0.05158627 -0.04527164 0.00058171
0.04343756 -0.03480243 0.00059071
0.06544876 -0.05308783 0.00091357
0.04243865 -0.04531096 -0.00044294
0.05452669 -0.05223504 -0.00046579
0.03461382 -0.03931209 -0.00000987
0.04567760 -0.03154485 0.00016021
0.03570081 -0.04014773 -0.00007571
0.05989855 -0.04978345 0.00079645
0.05928498 -0.04874191 0.00081511
0.05351582 -0.05296120 -0.00059630
0.04347501 -0.03284675 0.00043958
0.04549710 -0.03440068 0.00047565
0.05615548 -0.04834444 0.00064193
0.06062231 -0.04663483 0.00090893
0.06166614 -0.05506713 0.00034176
0.05079465 -0.03669576 0.00046585
0.05956706 -0.05222848 0.00030846
0.04846548 -0.04488285 0.00008767
0.05488359 -0.04915171 0.00043562
0.05449507 -0.04368783 0.00062592
0.05594767 -0.05374938 -0.00058466
0.05418512 -0.04011909 0.00064029
0.05124162 -0.03767378 0.00053201
0.04451061 -0.04564686 -0.00018609
0.04014395 -0.03521955 0.00037924
0.04705121 -0.04095721 0.00037156
0.06305383 -0.05765164 0.00000899
0.03985721 -0.03818947 0.00021016
0.03973320 -0.04324095 -0.00030396
0.03694572 -0.03938303 -0.00003995
0.05782773 -0.04497735 0.00077116
0.05438061 -0.04299397 0.00063754
0.04143707 -0.04224412 0.00013357
0.03930178 -0.04128049 0.00010383
0.05513192 -0.04107628 0.00068496
0.04772423 -0.03910311 0.00046530
0.05274338 -0.03866250 0.00056887
0.04720987 -0.03871061 0.00045703
0.05257911 -0.03849662 0.00056047
0.03718504 -0.03712231 0.00052641
0.06025636 -0.05627752 -0.00018756
0.06258103 -0.05284253 0.00076558
0.04656298 -0.03522944 0.00049743
0.06404654 -0.05221413 0.00093020
0.04505694 -0.03898392 0.00064986
0.06192469 -0.05472274 0.00022203
0.06123386 -0.05954675 -0.00109724
0.05675219 -0.05591722 -0.00084443
0.04673012 -0.03312057 0.00026001
0.05941043 -0.04664318 0.00086974
0.06117749 -0.05650916 -0.00006639
0.04662873 -0.03399609 0.00038393
0.06412566 -0.05623848 0.00049499
0.06503490 -0.05811258 0.00005205
0.05920487 -0.05105169 0.00063591
0.05590352 -0.05372990 -0.00058735
0.06751807 -0.05488318 0.00096981
0.05927386 -0.05303233 0.00012456
0.06214964 -0.05184494 0.00067751
0.06261543 -0.04865513 0.00097537
0.05187632 -0.04304346 0.00070400
0.05369125 -0.04801703 0.00020559
0.03754939 -0.03912736 0.00000979
0.05850535 -0.05536088 -0.00053112
0.04892047 -0.04267865 0.00061791
0.05002039 -0.03595239 0.00042127
0.06612828 -0.05603883 0.00063784
0.05834885 -0.04863240 0.00076807
0.05106260 -0.04067596 0.00068534
0.05012354 -0.03765835 0.00048676
0.04921375 -0.04702476 -0.00016273
0.05429716 -0.05409434 -0.00090207
0.04461330 -0.04491722 -0.00029009
0.03745685 -0.03899098 0.00032056
0.04721512 -0.03836845 0.00045921
0.04736218 -0.03685384 0.00058271
0.03646373 -0.03988414 -0.00010095
0.06650268 -0.05421228 0.00091964
0.05583974 -0.04244058 0.00071056
0.03781696 -0.03954081 -0.00002330
0.06342537 -0.05369025 0.00076037
0.06508741 -0.05413545 0.00087273
0.06365452 -0.05190446 0.00092090
0.04594513 -0.04147413 0.00055810
0.03933672 -0.04103166 0.00014965
0.04665944 -0.03540054 0.00050706
0.04647233 -0.03234342 0.00021099
0.04188393 -0.03740669 0.00034510
0.05233759 -0.04865652 -0.00006241
0.04834843 -0.04322935 0.00054985
0.04799263 -0.04954959 -0.00069249
0.05688042 -0.05631192 -0.00099159
0.03939656 -0.03594338 0.00066107
0.05686050 -0.04507830 0.00071032
0.05868992 -0.05283253 0.00007212
0.04360281 -0.03178385 0.00032112
0.05129214 -0.04250433 0.00069912
0.04760275 -0.03389564 0.00030395
0.05044270 -0.04714216 0.00025024
0.05673340 -0.05620017 -0.00098764
0.03709351 -0.03946066 -0.00004293
0.04488206 -0.03659347 0.00042253
0.06187939 -0.05946084 -0.00097381
0.05796590 -0.05040503 0.00058997
0.05066861 -0.04329973 0.00043055
0.05792353 -0.05191944 0.00037397
0.04633028 -0.04725185 -0.00030427
0.05287565 -0.05043010 -0.00032743
0.05485179 -0.04079303 0.00067193
0.05596036 -0.05561262 -0.00096635
0.04881710 -0.04105288 0.00045239
0.04922113 -0.03559659 0.00039806
0.04941072 -0.05062993 -0.00074849
0.06219538 -0.05319172 0.00069188
0.05503175 -0.04458676 0.00062295
0.06107274 -0.04837467 0.00091162
0.04161176 -0.04467870 -0.00040167
0.06207625 -0.05425502 0.00033138
0.04950258 -0.04969601 -0.00041940
0.04993413 -0.04800339 -0.00024967
0.06291343 -0.06089588 -0.00112446
0.04680689 -0.04728394 -0.00024255
0.04257775 -0.04144788 0.00034871
0.05174340 -0.05240568 -0.00083376
0.03607718 -0.03924195 -0.00004990
0.03852863 -0.03934449 0.00034256
0.03812395 -0.03801246 0.00047899
0.04256700 -0.04369377 -0.00027142
0.05355586 -0.05213319 -0.00059080
0.06166576 -0.05344473 0.00060342
0.04295312 -0.03242880 0.00042943
0.05297133 -0.05227331 -0.00070420
0.04571090 -0.03501227 0.00038027
0.06244901 -0.05985043 -0.00096946
0.04131154 -0.03622809 0.00066492
0.05205325 -0.04705654 0.00043023
0.05403396 -0.05414804 -0.00090923
0.06138551 -0.04963107 0.00089056
0.05421104 -0.04777321 0.00029607
0.06288062 -0.05487469 0.00054669
0.03699373 -0.04002500 -0.00010328
0.05282911 -0.03874907 0.00057323
0.03884282 -0.03814432 0.00016732
0.06357561 -0.05457822 0.00067320
0.05117917 -0.04620285 0.00045642
0.06319740 -0.05629628 0.00034248
0.05285776 -0.05140641 -0.00029045
0.04569871 -0.03783023 0.00043307
0.05711113 -0.05381338 -0.00040281
0.06182974 -0.06007253 -0.00110476
0.05055715 -0.04114066 0.00069220
0.04998216 -0.03587653 0.00042071
0.05642630 -0.05325224 -0.00038868
0.05269907 -0.03951877 0.00058087
0.05566452 -0.04186367 0.00070563
0.05452217 -0.04134736 0.00065719
0.06099914 -0.05359031 0.00028556
0.04585576 -0.03332268 0.00035530
0.05372758 -0.04640243 0.00063056
0.05988445 -0.05711068 -0.00050861
0.04723859 -0.04714816 -0.00015164
0.05961365 -0.04802461 0.00085616
0.05878840 -0.04957889 0.00056280
0.04990199 -0.04281852 0.00065068
0.05416810 -0.04533116 0.00071487
0.03720868 -0.04007652 -0.00010257
0.05490903 -0.04085090 0.00067460
0.04306069 -0.04191161 0.00001011
0.06211057 -0.05591588 0.00024219
0.03813287 -0.04028774 0.00017252
0.06575249 -0.05687593 0.00061828
0.05849415 -0.04835656 0.00079044
0.03896503 -0.03582594 0.00066051
0.05747724 -0.05370802 -0.00031526
0.03720576 -0.03662148 0.00023177
0.04757240 -0.04071837 0.00041093
0.05093965 -0.04226264 0.00069514
0.05590369 -0.05524543 -0.00093284
0.04309421 -0.04581198 -0.00047490
0.04249618 -0.03079793 0.00017797
0.05930801 -0.05588980 -0.00051582
0.04542019 -0.03782958 0.00042749
0.06060009 -0.05485552 -0.00002910
0.06235021 -0.06046796 -0.00111445
0.06210179 -0.05424921 0.00054192
0.03518211 -0.03974908 -0.00004452
0.05486191 -0.04860238 0.00050471
0.05141692 -0.04284796 0.00050017
0.05938701 -0.05144149 0.00060960
0.05164062 -0.04021987 0.00056041
0.05384055 -0.05091918 -0.00001593
0.04143130 -0.03778039 0.00030847
0.06624517 -0.05702518 0.00066137
0.04333646 -0.03354917 0.00050877
0.05075809 -0.05165579 -0.00079878
0.06035327 -0.04934610 0.00073026
0.06769100 -0.05380249 0.00110871
0.05532044 -0.04430007 0.00064969
0.05180734 -0.05001601 -0.00039307
0.04002891 -0.04088390 0.00023091
0.04106975 -0.04132968 0.00024746
0.05457338 -0.04995879 0.00027431
0.05671779 -0.04953746 0.00034413
0.06779863 -0.05538794 0.00101013
0.05624027 -0.04845196 0.00063893
0.06612434 -0.05435143 0.00085863
0.05551056 -0.05527070 -0.00095353
0.04678522 -0.04318808 0.00015117
0.05909336 -0.04508575 0.00085259
0.05588494 -0.05186119 0.00009644
0.05701357 -0.04911062 0.00063991
0.05840939 -0.04690228 0.00083267
0.05285492 -0.04462736 0.00068909
0.05344391 -0.05369932 -0.00089057
0.05958682 -0.05565675 -0.00015443
0.05765235 -0.04373761 0.00079025
0.05083065 -0.05171103 -0.00080141
0.05538610 -0.05067065 0.00025535
0.05365370 -0.04047010 0.00066329
0.04592975 -0.03302475 0.00026363
0.05482612 -0.05200519 -0.00010426
0.05537304 -0.05113152 -0.00010190
0.05710781 -0.04658110 0.00065768
0.04215748 -0.03817148 0.00062001
0.03861133 -0.03460917 0.00037335
0.04428493 -0.04095701 0.00051392
0.05506630 -0.05493297 -0.00094056
0.05057321 -0.03900357 0.00062712
0.04976917 -0.03566184 0.00040866
0.05808581 -0.04662287 0.00082584
0.05110627 -0.05192081 -0.00081132
0.05781161 -0.04495349 0.00082275
0.04262781 -0.03010380 0.00018403
0.05588520 -0.04324754 0.00070335
0.04651907 -0.04469782 0.00022438
0.06071907 -0.04905043 0.00078361
0.03968022 -0.04271443 -0.00029812
0.06076054 -0.05926020 -0.00108353
0.05686535 -0.04644694 0.00078548
0.05753494 -0.05425683 -0.00043435
0.04767292 -0.04127004 0.00038540
0.05676889 -0.04273227 0.00075801
0.04325600 -0.03147273 0.00030828
0.04493365 -0.04173132 0.00047853
0.04180592 -0.03557311 0.00065963
0.05811822 -0.04681779 0.00082364
0.03692173 -0.03639186 0.00024009
0.06495165 -0.05358243 0.00090648
0.05585561 -0.04366372 0.00077202
0.06290508 -0.05917501 -0.00068234
0.04344852 -0.04163720 0.00007267
0.04334597 -0.04326902 -0.00015087
0.04788374 -0.04787180 -0.00046500
0.03821118 -0.04039990 -0.00010137
0.04510089 -0.03252235 0.00031175
0.06431647 -0.05135070 0.00099208
0.04356689 -0.03434924 0.00055766
0.06732820 -0.05500200 0.00099887
0.05341324 -0.04826890 0.00040313
0.06046565 -0.04726142 0.00086571
0.05160718 -0.05191114 -0.00066435
0.05109921 -0.03700297 0.00048244
0.04315960 -0.03609060 0.00040518
0.04326233 -0.03729316 0.00065851
0.04798806 -0.04954611 -0.00069231
0.06386606 -0.05039790 0.00097643
0.04625022 -0.03293436 0.00025279
0.06533423 -0.05716785 0.00031465
0.05637006 -0.05436975 -0.00066208
0.05142607 -0.05135036 -0.00071408
0.04942545 -0.03937212 0.00065803
0.05023069 -0.04056531 0.00051848
0.04486308 -0.03776412 0.00065764
0.04813289 -0.03401374 0.00031317
0.05406066 -0.04586754 0.00048072
0.06041295 -0.04877265 0.00077658
0.04481560 -0.04392847 0.00017801
0.05477818 -0.04158993 0.00070837
0.06182834 -0.05749965 -0.00044202
0.04763150 -0.04927437 -0.00067773
0.06678498 -0.05603738 0.00085143
0.04288130 -0.04564928 -0.00046460
0.04810324 -0.04427570 0.00013330
0.05236686 -0.05159558 -0.00042621
0.05073354 -0.03663412 0.00046250
0.05783470 -0.05634515 -0.00073056
0.05461255 -0.04277602 0.00065160
0.04762249 -0.04461831 0.00034199
0.05009151 -0.05114834 -0.00077426
0.05629296 -0.05190307 -0.00011666
0.06503851 -0.05832057 0.00022669
0.05988332 -0.05231486 0.00055238
0.04342010 -0.03574584 0.00063428
0.05968436 -0.05744060 -0.00066049
0.05011534 -0.04204906 0.00047026
0.06077092 -0.04678543 0.00091416
0.04906832 -0.04917368 -0.00035626
0.05968802 -0.05168628 0.00040698
0.05639939 -0.05141420 -0.00000399
0.04553934 -0.04297123 0.00007335
0.04189994 -0.03720693 0.00035466
0.04524005 -0.04116780 0.00024798
0.05726692 -0.05117687 0.00016392
0.06419638 -0.05152650 0.00097652
0.03994661 -0.04254842 -0.00027284
0.03571960 -0.03954015 0.00009752
0.06257646 -0.04869166 0.00097537
0.05879055 -0.04962851 0.00073179
0.05152705 -0.04579181 0.00052990
0.06191083 -0.05074575 0.00086992
0.04556352 -0.04175320 0.00021382
0.04376248 -0.02962291 0.00003291
0.04048545 -0.03886748 0.00018055
0.05937986 -0.05231235 0.00049423
0.05083355 -0.03819931 0.00051214
0.05460209 -0.05418651 -0.00088518
0.03766476 -0.04165554 -0.00019003
0.04643506 -0.04020623 0.00038430
0.03882542 -0.04231082 -0.00027251
