ply
format ascii 1.0
element vertex 1396
property float x
property float y
property float z
end_header
-0.04490221 0.04093569 0.00061850
-0.05098276 0.04731331 0.00079383
-0.04132068 0.04782472 -0.00001317
-0.04309466 0.05438849 -0.00081890
-0.06059331 0.05964812 0.00107894
-0.04928585 0.04679730 0.00080107
-0.05684281 0.06199894 0.00031374
-0.04171003 0.04905717 0.00016306
-0.05512928 0.05558038 0.00087034
-0.04039470 0.05140905 -0.00068312
-0.03668364 0.03158137 0.00016154
-0.04419795 0.03947542 0.00054681
-0.03970435 0.03895668 0.00066305
-0.04720657 0.05013775 0.00062551
-0.04635108 0.05742652 -0.00093886
-0.04734794 0.04695068 0.00060331
-0.03525374 0.04600925 -0.00017044
-0.04889165 0.04929155 0.00077639
-0.05442599 0.05888910 0.00020282
-0.05572334 0.06030715 0.00018652
-0.05867619 0.05595599 0.00109715
-0.02884711 0.04103849 -0.00008011
-0.04237045 0.04920390 -0.00008305
-0.04313985 0.04776413 0.00019913
-0.05708291 0.06429390 -0.00015624
-0.05071008 0.05036397 0.00068047
-0.05133791 0.04795275 0.00084847
-0.05785562 0.06175458 0.00053548
-0.03448675 0.04033304 0.00020929
-0.04575204 0.04573055 0.00055686
-0.05669532 0.05584979 0.00097018
-0.03813107 0.03522677 0.00035622
-0.05224489 0.05710785 0.00012918
-0.04722984 0.05824586 -0.00096812
-0.03826961 0.03368680 0.00036857
-0.05307342 0.05811952 0.00034884
-0.04269338 0.03625369 0.00034199
-0.04813874 0.05438448 -0.00008710
-0.05932447 0.05920893 0.00099246
-0.04385611 0.05395396 -0.00048559
-0.03860439 0.04149912 0.00065881
-0.04294953 0.05285468 -0.00062302
-0.04635168 0.04074857 0.00056615
-0.03408432 0.03819079 0.00066852
-0.04526158 0.04028600 0.00052916
-0.05728568 0.06243626 0.00031375
-0.05185082 0.04901550 0.00087143
-0.04052809 0.05028308 -0.00024468
-0.04440958 0.05538125 -0.00086609
-0.03883812 0.03809555 0.00065385
-0.05115985 0.05411824 0.00062996
-0.05646033 0.05869159 0.00056660
-0.04641943 0.04597545 0.00075596
-0.05592062 0.06125413 0.00003994
-0.06051437 0.06004955 0.00097612
-0.05442224 0.05343036 0.00092055
-0.05484014 0.06059876 -0.00004694
-0.04261212 0.04418123 0.00044689
-0.05382917 0.05048941 0.00090992
-0.05094558 0.05723989 0.00014401
-0.03461022 0.04645306 -0.00042085
-0.04143699 0.04894811 -0.00016316
-0.05492152 0.05253839 0.00091566
-0.03769354 0.04756630 -0.00038588
-0.03841362 0.04398474 0.00047995
-0.04631826 0.05343238 -0.00021284
-0.03786909 0.04690654 -0.00027154
-0.04852011 0.05944860 -0.00100868
-0.05337394 0.06177431 -0.00039787
-0.04030504 0.04472518 0.00024360
-0.05102271 0.04673997 0.00080309
-0.02996414 0.04146213 0.00002448
-0.05478227 0.06255719 -0.00026324
-0.05378119 0.06125852 -0.00042441
-0.05156797 0.05237957 0.00079492
-0.04616890 0.04109464 0.00056835
-0.04292947 0.03825623 0.00050700
-0.04882736 0.05973497 -0.00101792
-0.04315918 0.05178191 -0.00011955
-0.05324906 0.05696046 0.00031880
-0.04811067 0.05756072 -0.00073188
-0.06132683 0.05923244 0.00116567
-0.05601649 0.06383594 -0.00030123
-0.05552645 0.05206360 0.00099465
-0.03098804 0.03944114 0.00042219
-0.05637535 0.06300460 -0.00000069
-0.04878936 0.05297708 0.00049500
-0.06057273 0.06096487 0.00088587
-0.04842444 0.05524082 0.00008768
-0.04828807 0.05809096 -0.00060891
-0.03347197 0.03671613 0.00070382
-0.04061899 0.04405561 0.00032485
-0.04580524 0.04254542 0.00068147
-0.04524533 0.04966343 0.00021103
-0.03542152 0.03324700 0.00052646
-0.05510678 0.05710473 0.00075191
-0.05185709 0.06024263 -0.00035151
-0.03359760 0.04550336 -0.00036509
-0.05726345 0.05542041 0.00097520
-0.04795826 0.04326062 0.00068532
-0.03412212 0.03805080 0.00067477
-0.05179475 0.05507283 0.00036919
-0.03897605 0.03432477 0.00038280
-0.05309723 0.06371345 -0.00112960
-0.05054668 0.05813453 -0.00012146
-0.03456121 0.04404634 -0.00018794
-0.04004096 0.04253905 0.00038604
-0.04475272 0.05215144 0.00006637
-0.05112088 0.05513666 0.00026250
-0.04312338 0.04340768 0.00050173
-0.04012662 0.03310803 0.00016694
-0.03871773 0.04795952 -0.00033668
-0.05160327 0.05518287 0.00032695
-0.04123337 0.04746440 0.00033977
-0.04645031 0.05713885 -0.00091244
-0.05934897 0.06131654 0.00065731
-0.05246649 0.05014220 0.00081995
-0.04088253 0.04482816 0.00057999
-0.03453705 0.04625639 -0.00043548
-0.04903210 0.04596035 0.00070841
-0.03758930 0.04734195 -0.00036361
-0.03911382 0.04850582 -0.00010324
-0.04542966 0.05429977 -0.00025819
-0.04908740 0.05997732 -0.00102561
-0.03972295 0.04209416 0.00039206
-0.04250624 0.04834367 0.00005592
-0.04962119 0.05518391 0.00001786
-0.05087839 0.05897804 -0.00051250
-0.05052694 0.05812553 -0.00039362
-0.04759667 0.05086455 0.00059629
-0.03048940 0.03792747 0.00019652
-0.03586807 0.04510745 0.00007808
-0.05651965 0.06313223 0.00000159
-0.03700591 0.03979359 0.00037401
-0.02892858 0.04111521 -0.00008532
-0.04652069 0.05468114 -0.00013804
-0.04256051 0.03609068 0.00033329
-0.04098356 0.04916995 0.00004428
-0.04920979 0.06009138 -0.00102919
-0.04913997 0.05788367 -0.00061114
-0.05272267 0.06336450 -0.00112105
-0.05216193 0.04857532 0.00084362
-0.03674232 0.04845063 -0.00053250
-0.04477360 0.05299896 -0.00037869
-0.03954164 0.04601541 0.00035060
-0.05546427 0.06533103 -0.00107177
-0.04405398 0.04547298 0.00046847
-0.03816606 0.03085005 0.00004554
-0.06036630 0.05804512 0.00114271
-0.03979497 0.05030143 -0.00037606
-0.04446321 0.04845045 0.00054350
-0.04096695 0.03425197 0.00023038
-0.03719377 0.04354999 0.00009687
-0.03159362 0.03730895 0.00028848
-0.03956023 0.05108693 -0.00066809
-0.04550581 0.04545572 0.00055310
-0.05241233 0.04940710 0.00088808
-0.05530768 0.05707797 0.00060289
-0.05103323 0.04880169 0.00085104
-0.03791032 0.03545421 0.00037121
-0.05497383 0.05573542 0.00070123
-0.04988832 0.05032205 0.00078868
-0.05815617 0.06180655 0.00057571
-0.05228882 0.05097469 0.00077275
-0.04328119 0.05456260 -0.00082626
-0.06091353 0.05872156 0.00115605
-0.05395039 0.05195583 0.00093072
-0.03405859 0.03903027 0.00062547
-0.05442434 0.06494980 -0.00115798
-0.04925458 0.04722153 0.00070113
-0.04874534 0.05516527 -0.00012660
-0.03549396 0.03626011 0.00068260
-0.04641535 0.05738505 -0.00088001
-0.04661964 0.05440853 -0.00034581
-0.04429089 0.04180082 0.00054775
-0.02958187 0.03987513 -0.00002148
-0.03566702 0.04285744 0.00038052
-0.05123750 0.05076845 0.00070046
-0.05119349 0.05925419 -0.00051083
-0.03122636 0.03869967 0.00051692
-0.04751907 0.05034237 0.00063434
-0.04682511 0.04133113 0.00059296
-0.05352081 0.05118289 0.00092200
-0.03681399 0.03509811 0.00057939
-0.05430191 0.05578395 0.00061578
-0.05856687 0.05762509 0.00102296
-0.04305904 0.04727122 0.00024478
-0.04301573 0.03664925 0.00036295
-0.05537206 0.05999698 0.00017741
-0.04621327 0.04463862 0.00074410
-0.05289063 0.05404095 0.00079263
-0.03981442 0.04282909 0.00064514
-0.03694158 0.04079336 0.00063448
-0.04845960 0.05478417 0.00017824
-0.04161219 0.04617034 0.00021857
-0.03933361 0.03598313 0.00036974
-0.05042976 0.06039182 -0.00092601
-0.05704508 0.06133275 0.00046960
-0.03696047 0.04681106 -0.00034860
-0.05710630 0.05899284 0.00078663
-0.04302160 0.04774538 0.00048542
-0.04736190 0.05749930 -0.00084719
-0.04977663 0.04963081 0.00080451
-0.05731423 0.05907559 0.00064274
-0.05828555 0.05924941 0.00088941
-0.04623082 0.05565823 -0.00066046
-0.04813254 0.05785488 -0.00057984
-0.04508116 0.05624213 -0.00089425
-0.05945308 0.05691627 0.00111891
-0.04339719 0.04852397 0.00043565
-0.03317680 0.04265213 -0.00012157
-0.05044728 0.04887707 0.00072605
-0.05497029 0.06109226 -0.00012559
-0.05516876 0.06564332 -0.00117258
-0.04687003 0.05265087 0.00000645
-0.04762613 0.04254917 0.00065304
-0.05575933 0.06129527 -0.00000217
-0.02886271 0.03987508 0.00018772
-0.05071448 0.06149352 -0.00107112
-0.05722904 0.06139340 0.00027360
-0.04951084 0.04843027 0.00068175
-0.04561316 0.03984020 0.00052332
-0.05749714 0.05449873 0.00106146
-0.04543797 0.04184727 0.00065517
-0.05814723 0.05646369 0.00099779
-0.05440589 0.06029460 -0.00007255
-0.04464631 0.04215651 0.00068380
-0.05460759 0.06512052 -0.00116166
-0.03835851 0.04196593 0.00062916
-0.04067686 0.03985327 0.00047196
-0.05101589 0.04988154 0.00072646
-0.04793545 0.05077643 0.00039201
-0.04312176 0.05081047 -0.00023748
-0.03451797 0.04148958 0.00010412
-0.03675348 0.03918985 0.00038823
-0.04319920 0.04575393 0.00065356
-0.05293261 0.06337335 -0.00102497
-0.05443890 0.06423734 -0.00085840
-0.05390422 0.06446525 -0.00114721
-0.03792057 0.03671685 0.00041450
-0.05661323 0.05411811 0.00099018
-0.02798501 0.04022636 -0.00002426
-0.03888393 0.04767121 0.00001982
-0.05720702 0.05786629 0.00089389
-0.04759320 0.05024492 0.00064781
-0.05376495 0.05925991 0.00026477
-0.05068911 0.04842588 0.00075463
-0.05369635 0.05328084 0.00076308
-0.03778938 0.03981513 0.00040255
-0.03308538 0.03487335 0.00040458
-0.05035304 0.04704610 0.00076253
-0.03436553 0.03400741 0.00038355
-0.04051388 0.03688646 0.00039482
-0.05566457 0.05554710 0.00079552
-0.05210595 0.06278994 -0.00110645
-0.04754531 0.04622153 0.00077398
-0.03089122 0.04260473 -0.00022262
-0.05150510 0.04725398 0.00082551
-0.03448599 0.03527745 0.00068337
-0.03961289 0.03346425 0.00024769
-0.03913288 0.04245544 0.00033800
-0.05199172 0.04956546 0.00087741
-0.04641217 0.04729863 0.00052783
-0.05592575 0.06156471 0.00022210
-0.05778103 0.05918430 0.00069637
-0.05501059 0.06315438 -0.00061187
-0.04559007 0.04129363 0.00062178
-0.04786411 0.04954494 0.00049567
-0.03943595 0.03524898 0.00032858
-0.03709670 0.04531626 0.00018727
-0.04614353 0.04049250 0.00055420
-0.04210745 0.03848556 0.00044948
-0.05005520 0.05933505 -0.00053362
-0.04229522 0.03864532 0.00045503
-0.04580747 0.05046988 0.00046016
-0.05135132 0.06153854 -0.00100849
-0.05112346 0.06041128 -0.00079493
-0.05784147 0.05903535 0.00072234
-0.04564714 0.05389547 -0.00040829
-0.05391352 0.05007138 0.00093331
-0.05204123 0.05303886 0.00079099
-0.04368446 0.04488798 0.00047521
-0.05146724 0.05473817 0.00059788
-0.03837011 0.04997400 -0.00061249
-0.03344244 0.04081588 0.00009809
-0.04474540 0.04985279 0.00012630
-0.03392643 0.03782093 0.00034687
-0.05815717 0.06167478 0.00039783
-0.04497486 0.04087199 0.00054171
-0.03117463 0.03893520 0.00049017
-0.04044247 0.04812844 0.00014832
-0.04522892 0.04765753 0.00065983
-0.03339446 0.03538267 0.00040298
-0.05670908 0.05353796 0.00103236
-0.03643149 0.03167138 0.00029608
-0.04269006 0.05259772 -0.00038282
-0.04350249 0.05008246 0.00023668
-0.03625641 0.03794325 0.00069317
-0.04791979 0.05796474 -0.00085021
-0.04970307 0.05024781 0.00078208
-0.04840896 0.04870609 0.00059474
-0.04960465 0.04475478 0.00074011
-0.04195927 0.03535327 0.00029341
-0.04031562 0.04054453 0.00046216
-0.05931622 0.05741094 0.00109081
-0.05699047 0.05689857 0.00083085
-0.05690043 0.06103842 0.00027572
-0.04316545 0.05445456 -0.00082170
-0.03666257 0.03675512 0.00066659
-0.05188642 0.05871902 0.00001888
-0.03601068 0.04250784 0.00011109
-0.04085202 0.04980641 -0.00037537
-0.04721192 0.04335609 0.00069793
-0.05328885 0.05435370 0.00063683
-0.05003276 0.04686993 0.00081033
-0.05988352 0.06153827 0.00071172
-0.03793087 0.03634289 0.00060251
-0.03367856 0.04142528 0.00038832
-0.03689472 0.03907717 0.00068749
-0.04275062 0.04517723 0.00066059
-0.05442196 0.05359908 0.00081088
-0.03876458 0.03637455 0.00039554
-0.05210741 0.05949478 -0.00010998
-0.03063404 0.04157275 0.00008336
-0.04998042 0.06080952 -0.00105115
-0.05185529 0.05753628 0.00024740
-0.05065778 0.05363048 0.00062696
-0.05030571 0.05843477 -0.00050570
-0.03954808 0.04341379 0.00029696
-0.05849091 0.05856470 0.00085882
-0.04331130 0.04936425 0.00031841
-0.05235205 0.05821882 0.00020781
-0.04450147 0.04418306 0.00054114
-0.05024805 0.04769184 0.00074587
-0.04765020 0.04234683 0.00063847
-0.03856133 0.03988441 0.00042546
-0.04731300 0.05770944 -0.00073664
-0.04338956 0.05465580 -0.00083765
-0.03718776 0.04886763 -0.00055484
-0.03292688 0.03786783 0.00065362
-0.03875108 0.04940545 -0.00035250
-0.04489974 0.03896313 0.00048078
-0.05743607 0.06393834 0.00001812
-0.05829848 0.05959682 0.00072066
-0.04675892 0.05179102 0.00012125
-0.04339623 0.05466997 -0.00083077
-0.05570362 0.05238043 0.00099367
-0.05221432 0.04797367 0.00086221
-0.05654267 0.06163944 0.00032586
-0.04726413 0.05515104 -0.00038090
-0.05296100 0.06209851 -0.00081375
-0.05032063 0.04923234 0.00083067
-0.05292158 0.05651898 0.00033336
-0.04767766 0.04601408 0.00064559
-0.05003064 0.05246797 0.00067287
-0.04597016 0.04974105 0.00028530
-0.04748789 0.05112133 0.00030276
-0.05227956 0.06148444 -0.00081036
-0.04509676 0.04417033 0.00073320
-0.05869149 0.05993810 0.00087158
-0.05868416 0.05757482 0.00103468
-0.05107845 0.05977305 -0.00065455
-0.04422890 0.04970930 0.00037905
-0.04536888 0.05651050 -0.00090460
-0.04764417 0.05299779 0.00006678
-0.05299259 0.05819342 0.00032289
-0.04820401 0.05315314 0.00039999
-0.04976125 0.06060529 -0.00104501
-0.04935482 0.05992812 -0.00089588
-0.03769851 0.03665892 0.00041437
-0.04032208 0.03556496 0.00041457
-0.05586421 0.05984016 0.00051632
-0.03732726 0.03205853 0.00017317
-0.03443930 0.04587937 -0.00027077
-0.04856470 0.04519398 0.00075921
-0.04993865 0.05333084 0.00058291
-0.04268759 0.04103322 0.00051112
-0.04128469 0.04078833 0.00048320
-0.04878322 0.04966842 0.00075769
-0.04383377 0.04773363 0.00027425
-0.05135098 0.05633442 0.00036954
-0.04895055 0.05882310 -0.00065722
-0.03592788 0.04268872 0.00008548
-0.05249392 0.05076896 0.00088800
-0.03642922 0.04646804 -0.00009431
-0.04266163 0.03980305 0.00049105
-0.05246053 0.06046438 -0.00026885
-0.03284202 0.03803949 0.00029288
-0.05622490 0.05292655 0.00101935
-0.05577195 0.05378948 0.00098335
-0.04575316 0.04220642 0.00058326
-0.03279522 0.04062161 0.00041496
-0.03997645 0.03349390 0.00022513
-0.04420260 0.05157648 0.00008617
-0.03954924 0.03240147 0.00012557
-0.05546970 0.06119870 0.00020682
-0.05058039 0.05936114 -0.00066075
-0.04029557 0.04817218 0.00012206
-0.04727261 0.04188195 0.00061784
-0.04932357 0.04536971 0.00076547
-0.05771708 0.05477055 0.00106836
-0.06162787 0.05960455 0.00117243
-0.05595515 0.05555984 0.00093217
-0.04056136 0.04780626 0.00021389
-0.03554111 0.03791836 0.00039196
-0.04973976 0.05872681 -0.00068316
-0.03140638 0.03759560 0.00026169
-0.05148843 0.04707795 0.00082981
-0.03687344 0.04600855 0.00004821
-0.04405023 0.04719173 0.00034674
-0.03955152 0.05107878 -0.00066770
-0.04575689 0.04577326 0.00055562
-0.04377352 0.04744887 0.00057588
-0.05582528 0.05818214 0.00072349
-0.02907486 0.03934703 0.00000900
-0.03986405 0.04158296 0.00042105
-0.04439381 0.05420338 -0.00043850
-0.05197946 0.05444101 0.00068171
-0.04028773 0.04617429 0.00040426
-0.05156675 0.05238422 0.00079460
-0.04491470 0.05390837 -0.00026668
-0.05459924 0.05470971 0.00074856
-0.05615825 0.06113547 0.00011244
-0.03372172 0.03784068 0.00067464
-0.04118861 0.05182488 -0.00066699
-0.04143513 0.04880654 0.00016746
-0.05084702 0.04966112 0.00084300
-0.05220383 0.06052925 -0.00059594
-0.03806765 0.04169144 0.00032387
-0.04260563 0.03614604 0.00033625
-0.05440457 0.05155374 0.00091594
-0.05700227 0.05704762 0.00081888
-0.03849553 0.03169163 0.00012510
-0.04911543 0.04415180 0.00071548
-0.05761561 0.05921932 0.00082126
-0.04212666 0.03887284 0.00046278
-0.03366055 0.04055714 0.00048239
-0.05982078 0.05955584 0.00093317
-0.04900732 0.05834857 -0.00073879
-0.03123957 0.04266939 -0.00022378
-0.04491870 0.05396693 -0.00027930
-0.04437706 0.04277478 0.00055423
-0.05934378 0.05678117 0.00111593
-0.05143586 0.06199221 -0.00099589
-0.05950251 0.06083889 0.00074432
-0.05446491 0.05474372 0.00073149
-0.05737566 0.05506729 0.00101041
-0.03040572 0.04250525 -0.00017786
-0.05396469 0.05013456 0.00093535
-0.04559736 0.05200089 0.00021871
-0.05386348 0.05336383 0.00089149
-0.03393418 0.04315377 -0.00012650
-0.05707880 0.06407713 -0.00034891
-0.04835682 0.05249405 0.00050314
-0.03427343 0.04613727 -0.00040250
-0.03930953 0.05085255 -0.00065658
-0.04617151 0.05257117 -0.00008565
-0.03828652 0.03220884 0.00014776
-0.04895922 0.04663927 0.00079507
-0.05346405 0.05555249 0.00053517
-0.04915295 0.04836554 0.00066131
-0.03155880 0.04052101 0.00033110
-0.05687253 0.05426738 0.00103291
-0.04123081 0.03693538 0.00038880
-0.04880263 0.05776522 -0.00040361
-0.04957177 0.05562299 0.00020927
-0.06038174 0.05905984 0.00105367
-0.05569468 0.05950460 0.00054045
-0.05184874 0.04897949 0.00081331
-0.03478709 0.04017873 0.00023967
-0.05216005 0.05509782 0.00063594
-0.04871416 0.05940748 -0.00100511
-0.04429284 0.04619687 0.00068499
-0.03796914 0.04723711 -0.00030936
-0.05935427 0.05851978 0.00103818
-0.03049548 0.03936322 0.00039653
-0.05350533 0.06373528 -0.00109286
-0.04682107 0.05304469 0.00022467
-0.04905690 0.04611827 0.00070815
-0.04717125 0.05045439 0.00034136
-0.03847086 0.04726764 -0.00026015
-0.04162692 0.05121252 -0.00051211
-0.04120163 0.04875953 0.00014441
-0.05555198 0.06540538 -0.00107115
-0.04962639 0.05187122 0.00046723
-0.03995886 0.04771957 -0.00015816
-0.04698686 0.04153021 0.00060201
-0.04762961 0.05632027 -0.00055511
-0.03711591 0.04647373 -0.00028583
-0.03769372 0.04176307 0.00029642
-0.03753174 0.04443108 0.00002622
-0.05561379 0.05224812 0.00099150
-0.05565594 0.05992355 0.00024360
-0.05174878 0.06068855 -0.00049834
-0.04359612 0.04000134 0.00050300
-0.04014131 0.03873332 0.00064312
-0.05266618 0.06331188 -0.00111974
-0.04272108 0.04445627 0.00068772
-0.04862524 0.04354778 0.00069026
-0.05342409 0.05135265 0.00091678
-0.04223813 0.04064562 0.00066918
-0.03392987 0.04404362 0.00002886
-0.03981393 0.03908450 0.00066489
-0.05386821 0.05069732 0.00090567
-0.05432951 0.05058510 0.00094970
-0.04157387 0.04075194 0.00048936
-0.04890883 0.05006821 0.00074694
-0.03703912 0.04872849 -0.00054742
-0.03850941 0.03773452 0.00043338
-0.05152179 0.05228335 0.00062674
-0.04119986 0.03834932 0.00044669
-0.05360895 0.04989373 0.00091219
-0.04614964 0.04883915 0.00039517
-0.04595360 0.04618381 0.00074384
-0.04272183 0.03628859 0.00034385
-0.05893842 0.05628011 0.00110465
-0.04613749 0.05722734 -0.00093155
-0.04643325 0.04084894 0.00057081
-0.04471520 0.04961910 0.00015324
-0.04939450 0.05534062 0.00023029
-0.03711525 0.04826820 -0.00053132
-0.05724025 0.05567903 0.00101356
-0.05912748 0.05651380 0.00110996
-0.04322572 0.05168558 -0.00008899
-0.03708842 0.03794167 0.00068569
-0.04424856 0.05222612 -0.00031853
-0.03364167 0.04460294 -0.00011338
-0.04662469 0.05678064 -0.00082144
-0.05776191 0.05963465 0.00079671
-0.05066692 0.05763635 0.00001210
-0.03965525 0.04766880 -0.00018602
-0.04143311 0.05251553 -0.00062018
-0.05368657 0.05972778 0.00015926
-0.05201023 0.05521223 0.00060690
-0.04250008 0.05383343 -0.00079503
-0.03380400 0.03514258 0.00069841
-0.04638733 0.05257843 0.00023792
-0.05507671 0.05958999 0.00043112
-0.05665490 0.05455166 0.00096838
-0.04216590 0.03560666 0.00030721
-0.06059410 0.05832670 0.00114834
-0.03912012 0.04711575 0.00014469
-0.02845985 0.04067376 -0.00005518
-0.02871746 0.03963505 -0.00002709
-0.05034057 0.04616232 0.00077057
-0.05147608 0.04920183 0.00086307
-0.05075102 0.05025197 0.00082975
-0.05987526 0.05882914 0.00100961
-0.04607343 0.04875343 0.00039556
-0.05558350 0.05354606 0.00092309
-0.05230427 0.06083029 -0.00064649
-0.05388248 0.05718395 0.00060189
-0.06038850 0.06092297 0.00096653
-0.05631435 0.05688152 0.00088413
-0.04228445 0.05086666 -0.00007836
-0.04058541 0.04233051 0.00068528
-0.03792737 0.04494096 0.00000162
-0.04555739 0.05569138 -0.00077375
-0.05097671 0.05416232 0.00037472
-0.03565492 0.03315890 0.00050373
-0.03709183 0.04215632 0.00055323
-0.04013306 0.05121488 -0.00067877
-0.04801954 0.04518245 0.00075873
-0.04960100 0.04475028 0.00073992
-0.04256511 0.04510130 0.00065564
-0.03718420 0.04886430 -0.00055466
-0.04345945 0.05472898 -0.00083324
-0.05661397 0.06186198 0.00029662
-0.04688046 0.04688565 0.00057799
-0.05083363 0.05586204 0.00010310
-0.05140646 0.05818325 0.00003913
-0.03119056 0.03726480 0.00027559
-0.04554329 0.04287584 0.00069873
-0.04347008 0.03720695 0.00039209
-0.05074590 0.05488665 0.00024308
-0.05369994 0.06306888 -0.00069145
-0.04085436 0.04549711 0.00021685
-0.03484867 0.04585208 -0.00019791
-0.03183408 0.04384780 -0.00026380
-0.04071802 0.04910417 -0.00027847
-0.05374227 0.06431438 -0.00114377
-0.05122872 0.05853812 -0.00007355
-0.05571418 0.05637626 0.00086720
-0.04002445 0.04991781 -0.00049469
-0.06116710 0.05961992 0.00110561
-0.04443260 0.04018219 0.00058629
-0.05525244 0.05893230 0.00055750
-0.04199489 0.03539695 0.00029580
-0.03842642 0.04460549 0.00041517
-0.05424786 0.06478539 -0.00115438
-0.04591204 0.05150775 0.00004562
-0.06088394 0.05973933 0.00105627
-0.05232751 0.06299636 -0.00111177
-0.03197355 0.04395638 -0.00028584
-0.05341553 0.05370457 0.00084936
-0.03044215 0.04115926 0.00013379
-0.05198843 0.06196999 -0.00082000
-0.04891474 0.05714179 -0.00022629
-0.05227033 0.05858288 -0.00014584
-0.04973988 0.04674844 0.00080487
-0.04639682 0.05746917 -0.00094042
-0.05078420 0.06155847 -0.00107297
-0.03371407 0.03618830 0.00039530
-0.03832537 0.04919812 -0.00037953
-0.03950935 0.03848308 0.00065051
-0.04349772 0.04327019 0.00052009
-0.05195810 0.05972121 -0.00045875
-0.03574404 0.04751567 -0.00048119
-0.05179616 0.05990090 -0.00027739
-0.04068508 0.03907589 0.00064262
-0.04875219 0.05153514 0.00040402
-0.04486492 0.03925306 0.00048831
-0.05211055 0.05047995 0.00078104
-0.03954652 0.04830987 -0.00029595
-0.03696948 0.04702624 -0.00012665
-0.05215247 0.04891668 0.00083497
-0.05323057 0.06228627 -0.00080105
-0.05715868 0.05408043 0.00105062
-0.03382489 0.04166019 0.00003679
-0.04958964 0.05679971 -0.00001646
-0.05363370 0.05686602 0.00039187
-0.03927087 0.03745435 0.00042666
-0.05667449 0.05660420 0.00093070
-0.03478286 0.04226761 0.00004159
-0.05740267 0.05925264 0.00079419
-0.05210394 0.05313777 0.00078969
-0.04426333 0.04061665 0.00052589
-0.05380285 0.05122808 0.00088023
-0.03138025 0.03711264 0.00064992
-0.05864272 0.05920574 0.00081270
-0.03794746 0.04957860 -0.00059216
-0.04485420 0.04271212 0.00056702
-0.04677552 0.04127010 0.00059018
-0.05532061 0.06163698 0.00008331
-0.04323619 0.03953236 0.00048678
-0.04044295 0.05087662 -0.00059996
-0.04190222 0.03718707 0.00039460
-0.04414123 0.04904237 0.00015814
-0.05247290 0.04829281 0.00087346
-0.03953432 0.04086897 0.00069052
-0.05493362 0.06113246 -0.00014231
-0.04342422 0.05214637 -0.00015013
-0.05017444 0.05964282 -0.00080607
-0.03939382 0.03500214 0.00031494
-0.04644192 0.04316243 0.00061201
-0.05417015 0.06471299 -0.00115278
-0.05594881 0.06507801 -0.00089352
-0.04349177 0.05222792 -0.00043189
-0.03603221 0.03544327 0.00039861
-0.04648248 0.04863103 0.00044374
-0.05488806 0.05396994 0.00083142
-0.05302654 0.04897622 0.00089702
-0.05420815 0.05286094 0.00092514
-0.03720569 0.04888442 -0.00055573
-0.06081948 0.05909287 0.00113104
-0.04363206 0.05100388 0.00010264
-0.04248091 0.04910619 0.00025442
-0.04530679 0.04870375 0.00032459
-0.05030962 0.05996347 -0.00064994
-0.04930876 0.04987570 0.00077616
-0.05281273 0.05312152 0.00083826
-0.04689959 0.04142280 0.00059713
-0.04257364 0.04165403 0.00050995
-0.02952188 0.04054790 0.00014138
-0.03577576 0.03980898 0.00031831
-0.03900872 0.04632295 0.00025235
-0.05649731 0.05816576 0.00079954
-0.03197739 0.04121001 -0.00003748
-0.04240715 0.04961597 0.00016517
-0.03827191 0.03252215 0.00017390
-0.03955630 0.04585457 0.00037217
-0.04802665 0.05251428 0.00019298
-0.05493042 0.06432219 -0.00074161
-0.03479843 0.04104507 0.00050866
-0.03610758 0.04019647 0.00063489
-0.05990135 0.06109728 0.00077171
-0.04830867 0.05479044 -0.00013195
-0.04438583 0.05043010 -0.00000198
-0.06017593 0.05780980 0.00113790
-0.04598890 0.05031296 0.00021986
-0.03809785 0.04971930 -0.00059943
-0.04394606 0.05518310 -0.00085202
-0.05212299 0.05703084 0.00012148
-0.03417829 0.04492900 -0.00032460
-0.04331771 0.04289151 0.00071313
-0.03568981 0.04009491 0.00029596
-0.03650126 0.03360263 0.00048449
-0.04946167 0.04790585 0.00081386
-0.04637694 0.04469997 0.00060871
-0.05633857 0.05306701 0.00102327
-0.04641079 0.04761873 0.00050924
-0.04765891 0.05733442 -0.00054704
-0.03761847 0.04742115 -0.00011057
-0.04110239 0.04019062 0.00047987
-0.04034332 0.03954006 0.00046578
-0.03428826 0.04081759 0.00015376
-0.03127928 0.03935850 0.00010980
-0.04666080 0.04182306 0.00062882
-0.05237758 0.04926050 0.00084120
-0.05411071 0.06465762 -0.00115154
-0.04803850 0.04719084 0.00063504
-0.04296802 0.04618539 0.00033912
-0.04622421 0.04718875 0.00073006
-0.05816897 0.05929911 0.00087316
-0.04388635 0.05501999 -0.00086002
-0.03534718 0.04512186 -0.00026210
-0.04985039 0.06043526 -0.00103089
-0.03629444 0.04161607 0.00021671
-0.03391654 0.03913535 0.00026975
-0.05391851 0.06447856 -0.00114752
-0.03083837 0.03770648 0.00022930
-0.05494617 0.05996847 0.00010126
-0.05145345 0.05839956 -0.00026891
-0.05661865 0.06165581 0.00033692
-0.03858797 0.03555066 0.00036263
-0.04532161 0.05085547 0.00035462
-0.02919708 0.04051515 0.00011213
-0.05586243 0.06063546 0.00038624
-0.05637957 0.05654807 0.00079062
-0.04995162 0.05597945 -0.00006807
-0.05000657 0.05731128 -0.00004594
-0.03975794 0.04159590 0.00041593
-0.03689599 0.04463637 0.00026510
-0.04300370 0.03876020 0.00045926
-0.05414153 0.05428817 0.00086922
-0.03279860 0.04454243 -0.00033830
-0.03850310 0.04772068 -0.00032415
-0.05341321 0.05025324 0.00088583
-0.04270155 0.05177694 -0.00046483
-0.03537874 0.03322832 0.00052776
-0.04354017 0.03839300 0.00049173
-0.05441475 0.05947348 0.00034012
-0.04845606 0.04333936 0.00068143
-0.04790570 0.05662572 -0.00031180
-0.02929545 0.03955652 0.00027657
-0.03472637 0.03782205 0.00037258
-0.05714767 0.06188773 0.00016327
-0.04585865 0.04560732 0.00074712
-0.05071091 0.05713373 -0.00015172
-0.05991311 0.06137157 0.00087167
-0.03506156 0.04074676 0.00021007
-0.03348510 0.04539781 -0.00035879
-0.04066077 0.04682481 0.00004521
-0.03779949 0.04056737 0.00037298
-0.04589684 0.05700292 -0.00092322
-0.04886986 0.05706937 -0.00021848
-0.04853281 0.05214797 0.00056067
-0.04139225 0.04200915 0.00070028
-0.04697465 0.05167010 0.00044493
-0.05281506 0.05825651 0.00002325
-0.03906649 0.03181101 0.00009041
-0.03941394 0.03561381 0.00047304
-0.05455085 0.05914208 0.00041905
-0.03710006 0.04127260 0.00029503
-0.04137927 0.05231495 -0.00072064
-0.04008444 0.04701134 0.00027473
-0.05452175 0.05648433 0.00056671
-0.03814533 0.03079761 0.00002867
-0.03963762 0.04060640 0.00069208
-0.04193751 0.05313753 -0.00077932
-0.04496797 0.04181465 0.00066316
-0.03736490 0.04067103 0.00034711
-0.05326913 0.06387360 -0.00113345
-0.04887353 0.05427540 0.00005017
-0.05569355 0.06046977 0.00038594
-0.05273194 0.05667204 0.00028087
-0.05837107 0.05820035 0.00087882
-0.03267264 0.03912651 0.00055675
-0.05449634 0.06033256 0.00019282
-0.03376428 0.03875693 0.00063102
-0.04259534 0.03621038 0.00033653
-0.04025959 0.03402151 0.00026364
-0.05283890 0.05573707 0.00042873
-0.04723362 0.04851406 0.00051606
-0.04610550 0.04930942 0.00034590
-0.03810301 0.03778666 0.00043235
-0.04245090 0.04022205 0.00064675
-0.05677977 0.06142230 0.00018050
-0.03476095 0.04353988 -0.00010885
-0.05242107 0.05451857 0.00071706
-0.05301871 0.06172348 -0.00070817
-0.05773724 0.06327424 0.00023405
-0.04957026 0.04612799 0.00078905
-0.03568552 0.04125646 0.00020684
-0.05353439 0.05168148 0.00091716
-0.04016037 0.04968528 -0.00017869
-0.04588005 0.05047235 0.00018627
-0.04005565 0.04398134 0.00059058
-0.02952015 0.04160681 -0.00014376
-0.05630480 0.06224777 -0.00009176
-0.03498629 0.04680560 -0.00044111
-0.05663952 0.06464402 -0.00060569
-0.03820225 0.03075467 0.00002622
-0.05274432 0.06056503 -0.00048760
-0.04280571 0.04133737 0.00051506
-0.04472857 0.05569831 -0.00077980
-0.04437578 0.04197950 0.00068122
-0.04696727 0.05413220 -0.00023523
-0.04992338 0.05801318 -0.00048790
-0.03680490 0.03541886 0.00059981
-0.05201716 0.06031683 -0.00058543
-0.04269475 0.03667241 0.00036198
-0.04686596 0.05380882 0.00009741
-0.04755244 0.05227155 0.00016184
-0.05026679 0.05218897 0.00050628
-0.05603547 0.05923476 0.00062604
-0.04879424 0.05396717 0.00008773
-0.03574593 0.04687104 -0.00045399
-0.04785654 0.05883009 -0.00098818
-0.05390794 0.06311677 -0.00085864
-0.04643225 0.04906411 0.00064771
-0.03868225 0.04377711 0.00051915
-0.06033880 0.05816442 0.00112658
-0.03785121 0.03331405 0.00024893
-0.03738040 0.03151737 0.00012539
-0.03052455 0.03743956 0.00023619
-0.03168633 0.04364486 -0.00021539
-0.04800034 0.05239834 0.00047379
-0.04986118 0.05047724 0.00060424
-0.05374371 0.04986168 0.00092650
-0.04269457 0.04308990 0.00049226
-0.05227604 0.04825119 0.00085802
-0.03501835 0.04109323 0.00017683
-0.05101098 0.05942505 -0.00033441
-0.04082628 0.03396477 0.00021610
-0.04861062 0.05217675 0.00031405
-0.05062917 0.04651738 0.00078323
-0.04048258 0.05106590 -0.00043228
-0.03586263 0.03687197 0.00041358
-0.04406203 0.04325065 0.00054093
-0.03946023 0.04014383 0.00044558
-0.05783096 0.05491129 0.00107189
-0.03916589 0.03415641 0.00026643
-0.03640070 0.03910435 0.00037917
-0.03864488 0.05023100 -0.00062554
-0.03717190 0.04885279 -0.00055405
-0.03963108 0.04075933 0.00069179
-0.03870388 0.03540854 0.00035320
-0.03996745 0.04145539 0.00042994
-0.03297823 0.04144214 0.00000158
-0.05698201 0.06367795 -0.00002401
-0.04785357 0.05352193 0.00001464
-0.05229251 0.05809314 0.00022088
-0.04968033 0.05299118 0.00059131
-0.05305819 0.05264864 0.00087180
-0.04883818 0.05710515 -0.00023342
-0.03951020 0.03584404 0.00035962
-0.05672737 0.05952323 0.00068195
-0.04870327 0.04813649 0.00079397
-0.02861110 0.04081622 -0.00006494
-0.05791312 0.05530495 0.00105280
-0.04225845 0.04230109 0.00049361
-0.04621425 0.05479573 -0.00022101
-0.05443525 0.05071571 0.00095381
-0.04986554 0.05151057 0.00052576
-0.03817432 0.04979084 -0.00060311
-0.05603612 0.05805390 0.00058644
-0.04314258 0.05403601 -0.00066414
-0.04197429 0.04896085 0.00021267
-0.05800366 0.05555810 0.00104591
-0.03136305 0.04109323 0.00023409
-0.03870695 0.05028906 -0.00062847
-0.05706171 0.05396061 0.00104747
-0.05136398 0.06050664 -0.00076811
-0.04154207 0.05024033 -0.00035795
-0.05203307 0.04774999 0.00085423
-0.03978843 0.04490039 0.00049691
-0.04549186 0.05500800 -0.00065095
-0.03053560 0.04025669 0.00028162
-0.03440098 0.03793317 0.00068359
-0.03218558 0.04417795 -0.00028441
-0.05077778 0.05475162 0.00026742
-0.04787950 0.05544126 -0.00004945
-0.05415846 0.05184193 0.00094089
-0.05703637 0.06076909 0.00055721
-0.04268162 0.05133283 -0.00010725
-0.04959437 0.04754489 0.00081453
-0.04499130 0.04417895 0.00073276
-0.04209107 0.04016914 0.00049311
-0.03866386 0.03255684 0.00021562
-0.04632293 0.04495000 0.00074940
-0.05851519 0.06290187 0.00045628
-0.06169653 0.05968943 0.00117394
-0.05702040 0.05899059 0.00061059
-0.03848406 0.04731419 -0.00026559
-0.03524717 0.04640851 -0.00025806
-0.04087444 0.04496249 0.00026965
-0.03841816 0.04014861 0.00068734
-0.05420475 0.05359258 0.00090288
-0.05882405 0.05821861 0.00101119
-0.04691297 0.04479327 0.00074838
-0.05461420 0.05615618 0.00061536
-0.04858289 0.05138679 0.00040051
-0.04056907 0.03699307 0.00039897
-0.04406432 0.04055932 0.00052215
-0.05629739 0.05982089 0.00058385
-0.04893742 0.04959361 0.00076831
-0.02941022 0.04048887 0.00013982
-0.04314070 0.05443147 -0.00082072
-0.04067559 0.03378020 0.00020560
-0.02888548 0.03888132 0.00033881
-0.05118488 0.05193269 0.00062103
-0.02986564 0.03978379 -0.00000125
-0.04372451 0.03991706 0.00059223
-0.04062547 0.04210709 0.00069020
-0.04037726 0.05093800 -0.00061657
-0.03838782 0.04819668 -0.00040819
-0.05641908 0.06006668 0.00056681
-0.04752968 0.04263143 0.00065873
-0.05174167 0.05789357 0.00016048
-0.03259768 0.03860132 0.00059491
-0.03799501 0.04034042 0.00067887
-0.03943744 0.03226469 0.00011747
-0.04397187 0.04004474 0.00059219
-0.04461061 0.04151353 0.00054964
-0.05462098 0.06353572 -0.00058229
-0.04300696 0.05221474 -0.00049984
-0.05073566 0.05084500 0.00065498
-0.03750098 0.04721956 -0.00035465
-0.05259324 0.04844135 0.00087864
-0.04938794 0.05266373 0.00035285
-0.04512602 0.05410050 -0.00053202
-0.04809052 0.05830814 -0.00072016
-0.04911674 0.04633640 0.00070865
-0.05178521 0.05927358 -0.00039301
-0.03668062 0.03318170 0.00043387
-0.05280208 0.06343848 -0.00112288
-0.05239374 0.06073254 -0.00060362
-0.05541406 0.06528253 -0.00092078
-0.03861326 0.05020143 -0.00062405
-0.04732147 0.04811265 0.00054764
-0.06127238 0.05979614 0.00110315
-0.03191322 0.04298345 -0.00002415
-0.05110195 0.05229959 0.00058378
-0.04395799 0.04441763 0.00072052
-0.05153104 0.04731564 0.00083912
-0.05574355 0.05662105 0.00085284
-0.05064875 0.05920713 -0.00061149
-0.05604115 0.06407190 -0.00060203
-0.05824508 0.05666058 0.00099407
-0.04271283 0.03738133 0.00039898
-0.04075201 0.05121406 -0.00041737
-0.04401901 0.04866454 0.00019037
-0.04766568 0.04236590 0.00063931
-0.04573357 0.05466810 -0.00054467
-0.04208895 0.04763921 0.00009933
-0.05606179 0.06102842 0.00011429
-0.05079731 0.05984507 -0.00072887
-0.04503318 0.04878258 0.00056154
-0.03503386 0.04250009 0.00003535
-0.04136854 0.04337056 0.00067842
-0.03838674 0.03640268 0.00058565
-0.03724187 0.03504766 0.00055313
-0.03555745 0.03608647 0.00067639
-0.05120755 0.05369041 0.00067516
-0.04479483 0.04045506 0.00059256
-0.04954539 0.05725321 -0.00012404
-0.04145856 0.04835768 -0.00007213
-0.03962387 0.03249278 0.00013095
-0.03162405 0.03669671 0.00032556
-0.05430424 0.05402359 0.00077046
-0.03360516 0.03449989 0.00068754
-0.03209752 0.04230918 0.00011699
-0.05062491 0.05332988 0.00042916
-0.04617065 0.05458560 -0.00018234
-0.03857059 0.04544950 0.00000139
-0.06103829 0.05887578 0.00115899
-0.03866056 0.05024567 -0.00062628
-0.05051048 0.04832701 0.00074639
-0.04231555 0.04947017 -0.00013074
-0.03555982 0.04154285 0.00017257
-0.05574731 0.05308721 0.00099600
-0.05298474 0.05951055 0.00006723
-0.03878558 0.03767380 0.00063799
-0.05252092 0.05750613 0.00036204
-0.04555567 0.04438423 0.00058058
-0.05336942 0.05752851 0.00048668
-0.03912201 0.03832056 0.00065468
-0.03617423 0.03972825 0.00034159
-0.03331061 0.03471632 0.00070196
-0.03502412 0.03862961 0.00067217
-0.04068467 0.04328343 0.00038132
-0.05725957 0.05824347 0.00086996
-0.04562524 0.05638298 -0.00088844
-0.05142816 0.05586986 0.00019844
-0.03349820 0.04277029 0.00018968
-0.05782361 0.05598089 0.00099687
-0.05239087 0.05005062 0.00088893
-0.05277075 0.05106454 0.00080610
-0.04818014 0.04787570 0.00061843
-0.04933843 0.05731328 -0.00017953
-0.04185836 0.04887762 -0.00009921
-0.03888480 0.04662750 0.00019288
-0.03813112 0.03980757 0.00041416
-0.04146998 0.04878259 0.00017584
-0.05803209 0.05515988 0.00107805
-0.04640006 0.05415017 -0.00033298
-0.04793917 0.05641029 -0.00051814
-0.04863464 0.04801755 0.00064169
-0.03827913 0.04941545 -0.00059083
-0.05172544 0.05237817 0.00080507
-0.05048054 0.04583471 0.00078282
-0.05759451 0.06223623 0.00018519
-0.05581701 0.05658773 0.00072000
-0.05907282 0.05742428 0.00107168
-0.04775208 0.05725978 -0.00050590
-0.03706686 0.03692706 0.00042017
-0.05070230 0.04610821 0.00079336
-0.05968112 0.06049527 0.00081226
-0.05112035 0.06187168 -0.00108177
-0.04412626 0.05535125 -0.00085887
-0.03679131 0.04748865 -0.00045707
-0.04204705 0.04728438 0.00013826
-0.04270802 0.04956494 -0.00009400
-0.05362107 0.06062934 -0.00005027
-0.05107802 0.05273092 0.00073914
-0.04286177 0.04387354 0.00070542
-0.05099907 0.05970711 -0.00065553
-0.03502422 0.03800593 0.00037485
-0.05297382 0.05675238 0.00030684
-0.04274163 0.05293636 -0.00045506
-0.03413519 0.04378886 -0.00018877
-0.03443937 0.04097426 0.00049227
-0.05324483 0.05527581 0.00053825
-0.05253658 0.05149218 0.00087829
-0.04148988 0.03925983 0.00062737
-0.03173348 0.04375329 -0.00025786
-0.04870573 0.05484130 0.00020758
-0.03731062 0.04898263 -0.00056094
-0.05258010 0.05003935 0.00089469
-0.04491786 0.04496622 0.00073363
-0.05340138 0.06149163 -0.00056571
-0.04057906 0.04502187 0.00023902
-0.03802546 0.03157293 0.00014930
-0.05803628 0.06089554 0.00068595
-0.03530926 0.04710829 -0.00045831
-0.05583520 0.06502705 -0.00070700
-0.03728565 0.04895926 -0.00055970
-0.05613806 0.05281925 0.00101634
-0.05383930 0.06150800 -0.00047140
-0.03297718 0.03960026 0.00053182
-0.03690707 0.04860488 -0.00054080
-0.04863951 0.05129926 0.00064949
-0.03937993 0.05091836 -0.00065983
-0.04788882 0.05523736 -0.00028889
-0.04603439 0.05310463 -0.00019921
-0.04844642 0.05397933 0.00031110
-0.03658178 0.03563559 0.00039777
-0.04122814 0.04838682 0.00020721
-0.04952807 0.05233914 0.00040728
-0.04499606 0.03908151 0.00048659
-0.04400353 0.05021984 0.00028064
-0.05507376 0.05186734 0.00095988
-0.04999326 0.04839041 0.00071315
-0.05077953 0.05810732 -0.00006803
-0.04392332 0.04728673 0.00032656
-0.04176013 0.03510912 0.00028003
-0.04751077 0.04273538 0.00063739
-0.03787593 0.03316163 0.00023715
-0.03945115 0.05025546 -0.00060723
-0.05962555 0.06153653 0.00081898
-0.05181347 0.05975674 -0.00049737
-0.05505982 0.06220901 -0.00010823
-0.04520676 0.04013840 0.00052371
-0.03378995 0.04026233 0.00017270
-0.04797717 0.05547707 -0.00032052
-0.03681672 0.04829742 -0.00054734
-0.04166502 0.04073241 0.00049113
-0.04203710 0.04715635 0.00015235
-0.05332517 0.05050051 0.00087068
-0.05260381 0.05328802 0.00081619
-0.02905503 0.03878221 0.00036496
-0.03815505 0.04030837 0.00068200
-0.04871147 0.04988602 0.00074432
-0.03325158 0.03745045 0.00034132
-0.05025763 0.05941320 -0.00073732
-0.03306898 0.04195166 -0.00004864
-0.04210260 0.03785691 0.00042430
-0.04143853 0.03844183 0.00058254
-0.04083207 0.03596793 0.00034300
-0.05288835 0.04880563 0.00089121
-0.03576417 0.04008311 0.00030064
-0.05731390 0.05477068 0.00102268
-0.05793308 0.05972942 0.00065090
-0.04613980 0.04242113 0.00059541
-0.04304045 0.05433789 -0.00081675
-0.03467772 0.04504292 -0.00030448
-0.04306958 0.03771033 0.00041389
-0.04098171 0.04071318 0.00047676
-0.03799898 0.04012075 0.00039965
-0.04926551 0.05925151 -0.00088873
-0.04143514 0.03471077 0.00025800
-0.04226900 0.05361766 -0.00078559
-0.03957030 0.04456532 0.00051180
-0.04328044 0.05046531 0.00014466
-0.04034733 0.05145542 -0.00069267
-0.06010777 0.06113295 0.00091734
-0.04510552 0.03921606 0.00049317
-0.04637930 0.05334543 0.00010431
-0.04013608 0.03311961 0.00016761
-0.04911118 0.05999949 -0.00102631
-0.05517186 0.05230628 0.00097936
-0.03117304 0.04322666 -0.00022446
-0.05688038 0.05470122 0.00102245
-0.04478434 0.03882130 0.00047379
-0.05800462 0.06121513 0.00063864
-0.05510085 0.06357262 -0.00046458
-0.05051578 0.05437827 0.00028223
-0.05178451 0.05535183 0.00032981
-0.06080020 0.05858147 0.00115334
-0.03464624 0.04072272 0.00052851
-0.05379867 0.06436692 -0.00114497
-0.03432174 0.03933279 0.00061704
-0.03334889 0.03700087 0.00069647
-0.03579550 0.03991727 0.00063828
-0.04339677 0.04532308 0.00043377
-0.03818329 0.03695870 0.00062529
-0.05144795 0.04730986 0.00083771
-0.02991325 0.04204201 -0.00014742
-0.04374686 0.05382811 -0.00068836
-0.05385875 0.05911514 0.00005623
-0.04927369 0.05025715 0.00056833
-0.06126299 0.05967983 0.00113744
-0.03620996 0.03455867 0.00036723
-0.03166889 0.03920266 0.00014507
-0.05143017 0.06055642 -0.00076620
-0.05013445 0.05191169 0.00051788
-0.04452183 0.03849873 0.00045778
-0.04291131 0.04855459 0.00038078
-0.04029722 0.03644857 0.00037697
-0.05670550 0.06361981 -0.00007461
-0.03425736 0.03535379 0.00040611
-0.03393850 0.03805421 0.00067079
-0.05522567 0.06569634 -0.00117366
-0.03375949 0.04565524 -0.00037412
-0.02993169 0.04029035 0.00022305
-0.03317251 0.04243935 0.00020694
-0.04593569 0.04656838 0.00073626
-0.03761079 0.04191084 0.00028032
-0.05653302 0.05361925 0.00102741
-0.04798025 0.04275328 0.00065625
-0.05724070 0.06255646 0.00004496
-0.05278497 0.06275681 -0.00101037
-0.04314943 0.05092754 -0.00025329
-0.03176701 0.04273317 -0.00021233
-0.05056814 0.05102786 0.00062890
-0.03078418 0.04286112 -0.00020097
-0.04422378 0.04266462 0.00055019
-0.03873116 0.04145858 0.00037360
-0.04660453 0.04105969 0.00058053
-0.04712763 0.04515456 0.00075643
-0.04582412 0.04507454 0.00074643
-0.05615614 0.05892063 0.00048885
-0.05761639 0.06186023 0.00026204
-0.05427993 0.06111105 -0.00027949
-0.05216686 0.05185133 0.00071571
-0.05511816 0.06183632 -0.00000561
-0.04555056 0.04638295 0.00051765
-0.03896900 0.05053412 -0.00064077
-0.03741918 0.03170204 0.00013961
-0.03846355 0.05006140 -0.00061694
-0.03706494 0.03398884 0.00048036
-0.03920845 0.05017958 -0.00045635
-0.05483126 0.05620279 0.00080242
-0.05164714 0.06131445 -0.00070709
-0.05465724 0.05392867 0.00091715
-0.03448654 0.04633710 -0.00041413
-0.03529751 0.03919833 0.00065661
-0.05109984 0.04675638 0.00080737
-0.03748473 0.04011249 0.00037981
-0.04193791 0.03687433 0.00037843
-0.05295124 0.05296688 0.00085361
-0.03843103 0.03543959 0.00036037
-0.04733516 0.05628462 -0.00034747
-0.03900529 0.05037690 -0.00065238
-0.03430988 0.04205672 0.00036319
-0.03816363 0.04136984 0.00034896
-0.05070817 0.04774827 0.00077095
-0.03854371 0.04164261 0.00035376
-0.03755159 0.04139676 0.00031312
-0.03868105 0.04572989 -0.00002319
-0.05585051 0.05681821 0.00084803
-0.03878507 0.03421404 0.00028104
-0.05721422 0.05992656 0.00069654
-0.05601811 0.05883372 0.00047959
-0.03828401 0.04989345 -0.00060837
-0.03523619 0.04703981 -0.00045443
-0.05474329 0.05512819 0.00086738
-0.05474688 0.06443386 -0.00083244
-0.05424856 0.05048514 0.00094655
-0.04449037 0.05522704 -0.00069256
-0.03482734 0.04355166 0.00020831
-0.05511572 0.05613910 0.00083255
-0.05707918 0.05398220 0.00104804
-0.03443421 0.04447362 -0.00025133
-0.03968284 0.04487985 0.00049066
-0.03593286 0.03779299 0.00040397
-0.05024138 0.05730397 -0.00027469
-0.04547975 0.05478064 -0.00036109
-0.04101052 0.04938260 0.00000976
-0.02968201 0.04182443 -0.00013298
-0.05495854 0.06544748 -0.00116855
-0.04632525 0.05480931 -0.00020291
-0.03500807 0.03898862 0.00065786
-0.03286582 0.04481664 -0.00032370
-0.06027603 0.05793353 0.00114044
-0.05331477 0.04933206 0.00090901
-0.04214936 0.03558637 0.00030611
-0.03273240 0.04469139 -0.00031606
-0.05113776 0.04680662 0.00082108
-0.04819827 0.04506870 0.00067741
-0.04437388 0.04805784 0.00029535
-0.03133974 0.03861127 0.00017977
-0.04834964 0.04424471 0.00072587
-0.05342953 0.05791012 0.00019633
-0.05141308 0.06022135 -0.00069042
-0.04210091 0.04932066 -0.00013555
-0.04175826 0.03711128 0.00039212
-0.04880176 0.05475826 0.00023703
-0.04798724 0.05517646 -0.00025987
-0.05989708 0.06059777 0.00094224
-0.05283999 0.06347381 -0.00112375
-0.04059578 0.03373434 0.00020023
-0.05945376 0.05827267 0.00100624
-0.04481049 0.04712007 0.00066622
-0.04843699 0.04626878 0.00078418
-0.04916185 0.05537660 0.00018627
-0.05820694 0.06160217 0.00041923
-0.04011068 0.05160146 -0.00069299
-0.04517777 0.04897333 0.00028291
-0.04594810 0.05131739 0.00007880
-0.04797167 0.05489049 -0.00020790
-0.03139947 0.04063788 -0.00001067
-0.04267872 0.03992714 0.00049410
-0.05646677 0.05985035 0.00039962
-0.03728699 0.04013548 0.00037050
-0.05016743 0.05755080 -0.00006674
-0.03961384 0.03250288 0.00013658
-0.05381473 0.06438189 -0.00114532
-0.04467136 0.04843693 0.00056230
-0.03311795 0.04505329 -0.00033807
-0.03964745 0.04631345 0.00032279
-0.03221320 0.03727635 0.00066473
-0.05479917 0.06212087 -0.00040224
-0.04283946 0.04925907 0.00027623
-0.04281557 0.04735153 0.00021143
-0.03804052 0.03055710 0.00001403
-0.03352640 0.04543657 -0.00036110
-0.04769453 0.04307245 0.00067906
-0.04073213 0.03454423 0.00028808
-0.04490681 0.03897182 0.00048121
-0.05776492 0.05688664 0.00099873
-0.05377132 0.05592097 0.00053285
-0.04092778 0.04608462 0.00016149
-0.04367833 0.04435268 0.00049742
-0.05265221 0.06086631 -0.00057957
-0.04350810 0.05269303 -0.00051430
-0.05339393 0.04942980 0.00091227
-0.05387724 0.06444012 -0.00114664
-0.04654017 0.05742705 -0.00085549
-0.03208727 0.04195972 -0.00011278
-0.04651887 0.04711743 0.00074293
-0.04665218 0.04685634 0.00075260
-0.05974691 0.06034599 0.00094777
-0.05708084 0.05484396 0.00103046
-0.05487551 0.05389355 0.00093105
-0.04465448 0.05018234 0.00006951
-0.04455435 0.04833071 0.00028562
-0.04805198 0.05182720 0.00054503
-0.03570282 0.03769175 0.00040119
-0.04923217 0.05991651 -0.00102356
-0.03582724 0.04303350 0.00037306
-0.06048211 0.06083141 0.00098393
-0.03271803 0.04467790 -0.00031523
-0.05600915 0.05601230 0.00079499
-0.05086902 0.04896797 0.00084735
-0.03454869 0.03399314 0.00037986
-0.03487132 0.04457189 0.00004974
-0.05707933 0.05937603 0.00074325
-0.04090899 0.05234742 -0.00072817
-0.04851162 0.04533022 0.00076328
-0.04082560 0.04598687 0.00047350
-0.03056981 0.04145137 -0.00013426
-0.04790814 0.05202062 0.00050828
-0.04567898 0.04892238 0.00060221
-0.04197722 0.04567248 0.00058791
-0.05172127 0.04842335 0.00081845
-0.04532415 0.04844613 0.00035150
-0.04866502 0.05637169 -0.00037733
-0.02986734 0.04096797 0.00010535
-0.05369553 0.05261524 0.00090587
-0.04553604 0.05570128 -0.00058424
-0.05936414 0.05955755 0.00097144
-0.05214076 0.05985756 -0.00018944
-0.04559047 0.04357431 0.00072105
-0.04806312 0.05325916 0.00008839
-0.05894904 0.05629324 0.00110495
-0.04657716 0.05763732 -0.00094652
-0.04278508 0.04321631 0.00071067
-0.03935627 0.05032951 -0.00046570
-0.03823183 0.03079082 0.00002844
-0.04714204 0.04172122 0.00061063
-0.03716408 0.03343948 0.00042362
-0.04492484 0.04664581 0.00045975
-0.03903519 0.03313973 0.00019650
-0.03487647 0.04670265 -0.00043521
-0.03856290 0.03354730 0.00024191
-0.04798803 0.05858674 -0.00096058
-0.05177597 0.05779641 0.00018531
-0.04167477 0.05166889 -0.00058396
-0.04252046 0.04446816 0.00042635
-0.04083922 0.03409203 0.00023279
-0.05175655 0.04740877 0.00084192
-0.04529115 0.03944426 0.00050426
-0.03983480 0.04021747 0.00045410
-0.03789264 0.04410283 0.00042562
-0.04443275 0.05289649 -0.00041257
-0.05414225 0.06294752 -0.00053513
-0.04132961 0.04773697 -0.00000011
-0.04067309 0.05212702 -0.00071789
-0.04912989 0.05892010 -0.00064106
-0.05599522 0.05527646 0.00085198
-0.04478526 0.03882243 0.00047385
-0.04717955 0.04918677 0.00068983
-0.03748769 0.03897141 0.00041606
-0.03241614 0.04427220 -0.00023802
-0.03966749 0.04401891 0.00056451
-0.03977427 0.04303580 0.00063336
-0.03207716 0.04193507 0.00017494
-0.05409240 0.05930944 0.00031351
-0.05835283 0.05600097 0.00105441
-0.03696770 0.04370153 0.00006050
-0.03181750 0.04035561 0.00004255
-0.04882263 0.05926058 -0.00096429
-0.04685624 0.04983035 0.00037209
-0.05220713 0.06288421 -0.00110889
-0.03592824 0.04486124 0.00012564
-0.03617966 0.04574185 -0.00027254
-0.04926096 0.05682465 -0.00036052
-0.04541485 0.05655339 -0.00090624
-0.04235260 0.05369573 -0.00078902
-0.05457443 0.05379473 0.00081268
-0.05160521 0.05661216 0.00010503
-0.03155201 0.04358279 -0.00024710
-0.03183984 0.04319379 -0.00025342
-0.03963821 0.04669238 0.00026985
-0.05456281 0.05539227 0.00083730
-0.05189946 0.05932443 -0.00038079
-0.04524607 0.05484995 -0.00042535
-0.03939394 0.03723031 0.00059174
-0.04804381 0.05584073 -0.00038160
-0.03236389 0.04434540 -0.00029479
-0.04152880 0.05060975 -0.00014827
-0.04660643 0.04953497 0.00037530
-0.05718645 0.05722161 0.00082500
-0.04906806 0.05071922 0.00051396
-0.05758597 0.05898850 0.00069214
-0.04854164 0.05522019 0.00011163
-0.05176720 0.05024582 0.00086773
-0.06084445 0.05923818 0.00112526
-0.04746096 0.04211384 0.00062817
-0.05463695 0.05991628 0.00029923
-0.03499678 0.04658073 -0.00034638
-0.05194180 0.05932171 -0.00010476
-0.07428605 0.04113300 0.00028498
-0.07332618 0.04393991 -0.00043810
-0.04958054 0.02363151 0.00043387
-0.04640374 0.03126709 -0.00019880
-0.07212791 0.04279541 -0.00023338
-0.04099926 0.03053226 -0.00012518
-0.05651596 0.03416439 -0.00009008
-0.06712332 0.03624434 0.00046676
-0.04436848 0.03211993 -0.00028941
-0.06056829 0.03692856 -0.00030811
-0.06308701 0.03587571 0.00015999
-0.05870194 0.02574246 0.00065055
-0.05959158 0.03153486 0.00049876
-0.03903905 0.02924033 -0.00004944
-0.05817571 0.02898902 0.00059358
-0.06071809 0.03094253 0.00060474
-0.06825884 0.03645945 0.00072623
-0.07090533 0.04452169 -0.00114237
-0.06696499 0.03156083 0.00091050
-0.07010587 0.03814972 0.00042986
-0.05661589 0.03655967 -0.00057306
-0.05316854 0.02413413 0.00048147
-0.05684416 0.02835139 0.00056772
-0.06464134 0.03414285 0.00055295
-0.04598529 0.02906414 0.00008391
-0.05582719 0.02776219 0.00055161
-0.04634045 0.02595971 0.00037039
-0.07231956 0.04390012 -0.00080990
-0.07344920 0.04209152 0.00016529
-0.05005579 0.02887888 0.00027322
-0.07116884 0.03827292 0.00070465
-0.06933680 0.03387180 0.00097120
