ply
format ascii 1.0
element vertex 1373
property float x
property float y
property float z
end_header
-0.06320049 -0.00324181 0.00039507
-0.08775890 0.00126046 0.00039460
-0.06582635 0.00454517 -0.00011067
-0.08119494 0.00099793 0.00027193
-0.08309856 0.00324547 -0.00007462
-0.06582909 0.00639680 -0.00028715
-0.06615469 0.00640425 -0.00032658
-0.07027328 -0.00176897 0.00047406
-0.06970668 -0.00250463 0.00058196
-0.06202578 0.00569632 -0.00010627
-0.08530513 -0.00313167 0.00092879
-0.08408545 -0.00011910 0.00064584
-0.06850392 0.00025128 0.00058721
-0.08440451 -0.00114097 0.00076528
-0.07927761 -0.00100989 0.00069998
-0.06455929 -0.00357933 0.00039346
-0.07810476 -0.00375322 0.00075073
-0.08908265 0.00442824 -0.00084358
-0.08405636 -0.00060252 0.00070556
-0.08206761 0.00539808 -0.00081431
-0.07051081 -0.00151328 0.00062043
-0.07144570 0.00220902 0.00038515
-0.07855358 0.00191539 0.00033325
-0.06386194 -0.00116565 0.00037532
-0.08941714 0.00387894 -0.00066060
-0.08976250 0.00227262 -0.00010756
-0.07076844 0.00552080 -0.00028662
-0.08543778 0.00198479 0.00023616
-0.08094277 -0.00059197 0.00068092
-0.07989592 0.00529574 -0.00077391
-0.08234366 0.00181324 0.00008888
-0.06267273 0.00263258 0.00050323
-0.06583535 0.00484084 0.00009582
-0.07605618 -0.00001187 0.00041826
-0.07648520 -0.00120202 0.00068187
-0.06889594 -0.00122449 0.00060679
-0.08311468 0.00344992 -0.00036579
-0.07625168 0.00363951 -0.00000306
-0.07784015 -0.00213174 0.00072979
-0.07323375 -0.00104828 0.00064528
-0.06019074 0.00629127 0.00008930
-0.06982739 -0.00101460 0.00061603
-0.06639804 -0.00396943 0.00040612
-0.08538523 0.00524604 -0.00093255
-0.08610215 0.00092814 0.00047298
-0.08343728 0.00385466 -0.00027770
-0.05959128 -0.00530164 0.00001370
-0.08395889 0.00189324 0.00027530
-0.07074541 -0.00336437 0.00056437
-0.06588164 -0.00478718 0.00030884
-0.07548751 0.00253262 0.00000778
-0.08350872 -0.00276423 0.00086608
-0.07403640 0.00593821 -0.00062731
-0.07127357 -0.00091344 0.00045494
-0.06148174 -0.00163461 0.00033375
-0.08883799 0.00080321 0.00032042
-0.08687900 0.00059874 0.00036343
-0.08489066 0.00224960 -0.00004813
-0.08498834 0.00010838 0.00061685
-0.08468211 -0.00062551 0.00058055
-0.06956941 0.00394314 0.00013319
-0.08218300 -0.00242179 0.00082063
-0.08471905 -0.00164076 0.00081406
-0.06546539 0.00075854 0.00032998
-0.06740919 0.00633124 -0.00037928
-0.06801380 -0.00208857 0.00043681
-0.09002451 0.00129673 0.00018920
-0.07641216 0.00233164 0.00003553
-0.06362110 0.00325351 0.00041747
-0.06669198 0.00085246 0.00032011
-0.05961402 -0.00529981 0.00001485
-0.06905449 0.00529288 -0.00014482
-0.07173671 0.00127541 0.00049820
-0.08819688 0.00314206 -0.00015917
-0.07568346 -0.00290170 0.00063049
-0.06909140 -0.00248287 0.00045961
-0.05995346 0.00610198 -0.00004600
-0.06771484 -0.00360199 0.00040985
-0.08247413 0.00311436 -0.00002143
-0.08237942 -0.00156682 0.00067487
-0.08807903 0.00508009 -0.00098279
-0.08432015 0.00411027 -0.00039450
-0.08460504 0.00529406 -0.00091641
-0.08958084 0.00433405 -0.00082636
-0.08572505 -0.00259260 0.00090484
-0.07201330 0.00058904 0.00033742
-0.06701842 0.00449135 0.00011621
-0.06565038 -0.00004064 0.00059533
-0.05984575 0.00317558 0.00052736
-0.08747246 0.00053996 0.00037893
-0.07566122 -0.00396261 0.00067641
-0.07005391 0.00232711 0.00012487
-0.06147298 0.00561286 0.00015116
-0.08397607 0.00146031 0.00037279
-0.08179098 -0.00123968 0.00062625
-0.07628902 0.00037062 0.00057180
-0.06147150 0.00152000 0.00030912
-0.08699232 -0.00298546 0.00096168
-0.07737358 0.00300618 -0.00012801
-0.06439684 0.00387942 0.00031227
-0.07157640 -0.00354433 0.00052887
-0.07254623 -0.00257849 0.00054029
-0.06721699 0.00230480 0.00016961
-0.06082493 0.00540592 -0.00002416
-0.07310768 -0.00042929 0.00043971
-0.07772127 0.00059305 0.00034197
-0.08904038 -0.00202737 0.00087428
-0.08750169 -0.00294130 0.00097095
-0.06566872 0.00184110 0.00051472
-0.07785964 0.00364556 -0.00005064
-0.06609996 0.00143094 0.00027549
-0.06337980 0.00656390 -0.00020355
-0.07967141 -0.00011014 0.00062651
-0.07533404 -0.00302664 0.00068444
-0.06973550 0.00619459 -0.00047218
-0.07329889 0.00062377 0.00055296
-0.06964555 0.00319643 0.00026774
-0.07212096 0.00604345 -0.00054587
-0.07483716 0.00213685 0.00034365
-0.06543372 0.00060179 0.00058451
-0.08448016 0.00412038 -0.00040347
-0.06115716 -0.00019441 0.00035694
-0.08016951 0.00330957 -0.00026092
-0.07542440 0.00585458 -0.00067276
-0.08081446 -0.00351995 0.00082491
-0.06734635 0.00633491 -0.00037669
-0.06937924 -0.00449522 0.00045314
-0.06232626 0.00217227 0.00025551
-0.08122614 -0.00119786 0.00061249
-0.06361555 -0.00497422 0.00020777
-0.08349822 -0.00199024 0.00082047
-0.08508031 0.00278384 0.00002084
-0.06252509 -0.00506356 0.00015702
-0.09040960 0.00349897 -0.00054700
-0.08199565 -0.00033663 0.00066173
-0.06248801 0.00516418 0.00018198
-0.07147469 -0.00157818 0.00048825
-0.06395186 -0.00469925 0.00023442
-0.08014828 0.00528512 -0.00066299
-0.06513360 0.00497441 0.00009978
-0.07220236 -0.00425702 0.00055920
-0.07390971 -0.00107451 0.00065207
-0.08063310 -0.00198599 0.00077186
-0.08374446 0.00290961 -0.00022004
-0.07138243 -0.00270156 0.00060668
-0.08999122 -0.00014689 0.00054819
-0.07002711 -0.00444074 0.00047830
-0.07825673 0.00082610 0.00030495
-0.07434016 -0.00009866 0.00060914
-0.07701207 0.00450205 -0.00048062
-0.08199076 -0.00204966 0.00079808
-0.09033760 0.00374194 -0.00044094
-0.08116582 0.00079617 0.00050946
-0.07570896 0.00583739 -0.00068180
-0.07467173 0.00589998 -0.00064840
-0.07104202 0.00199126 0.00016192
-0.08490009 -0.00302867 0.00090172
-0.07351996 0.00596922 -0.00060983
-0.07936056 0.00203508 0.00029932
-0.06172187 0.00027129 0.00035362
-0.07056510 0.00066397 0.00055931
-0.06941025 -0.00224332 0.00058722
-0.08258191 -0.00100315 0.00060820
-0.08703514 -0.00095902 0.00066624
-0.07471964 0.00242232 0.00004103
-0.06340045 -0.00180886 0.00052354
-0.07930598 0.00250774 0.00019805
-0.06576700 -0.00479669 0.00030387
-0.08795720 0.00276132 -0.00024382
-0.08148964 0.00444262 -0.00061016
-0.06685684 -0.00443555 0.00037801
-0.08017783 -0.00263861 0.00078789
-0.08874387 -0.00212934 0.00092695
-0.07879297 0.00210955 0.00005376
-0.07762217 -0.00091504 0.00053129
-0.06830766 -0.00297060 0.00043801
-0.07768339 0.00015396 0.00059433
-0.06536744 0.00043265 0.00034889
-0.07606261 -0.00199933 0.00069787
-0.07173125 0.00179067 0.00043797
-0.07364014 -0.00308939 0.00058156
-0.06895670 -0.00453069 0.00043646
-0.07608919 0.00143420 0.00020812
-0.07594433 0.00155009 0.00042461
-0.07111257 0.00510322 -0.00018981
-0.06991025 -0.00280574 0.00057258
-0.06843879 0.00172860 0.00048698
-0.07698824 0.00194641 0.00010649
-0.06225798 0.00083264 0.00033620
-0.08893381 0.00502741 -0.00099695
-0.06771503 -0.00054004 0.00040299
-0.06956645 -0.00349814 0.00046762
-0.07055710 -0.00439609 0.00049852
-0.08507792 0.00216344 -0.00002612
-0.07677078 0.00151303 0.00042251
-0.07342596 0.00251869 0.00004229
-0.05982725 -0.00519367 0.00004223
-0.07883335 -0.00023265 0.00063524
-0.08728309 -0.00016085 0.00066804
-0.07490173 -0.00025631 0.00062124
-0.07349861 0.00036466 0.00036427
-0.06154014 -0.00199854 0.00032006
-0.07909189 -0.00366835 0.00077876
-0.07685315 0.00422721 -0.00017855
-0.06929992 -0.00348256 0.00045977
-0.07874361 0.00168368 0.00037438
-0.07725281 -0.00175345 0.00071060
-0.08177661 0.00468871 -0.00050966
-0.08925419 0.00304102 -0.00014671
-0.08904328 0.00440829 -0.00083561
-0.06478602 0.00058558 0.00034125
-0.07314645 -0.00410620 0.00059798
-0.08015202 -0.00316890 0.00080121
-0.08252749 0.00122409 0.00022271
-0.06230171 -0.00007982 0.00059520
-0.07058156 -0.00263229 0.00049471
-0.08492010 -0.00134952 0.00069198
-0.07440442 -0.00051800 0.00063404
-0.06278474 -0.00135425 0.00054608
-0.06329769 -0.00310011 0.00030441
-0.07910595 -0.00267584 0.00076615
-0.06714740 -0.00376296 0.00044475
-0.07449569 -0.00321774 0.00060962
-0.08052132 0.00427664 -0.00053365
-0.08361325 0.00241566 -0.00007876
-0.07271132 -0.00250368 0.00054219
-0.07324602 0.00235179 0.00033302
-0.06513677 0.00449864 0.00018681
-0.07700229 0.00341382 0.00003253
-0.08936763 0.00500067 -0.00100381
-0.07413791 0.00539997 -0.00057393
-0.07662073 -0.00367788 0.00069401
-0.05983700 -0.00452113 0.00009328
-0.06219689 0.00032783 0.00060064
-0.06315249 0.00507218 0.00016828
-0.08949393 0.00234370 0.00008232
-0.06693110 0.00203880 0.00047801
-0.06372567 0.00645291 -0.00024123
-0.07978696 0.00034926 0.00057405
-0.06630430 -0.00257789 0.00051551
-0.07739153 -0.00271925 0.00073043
-0.07980448 -0.00123117 0.00071974
-0.08526033 -0.00123520 0.00078467
-0.08240357 0.00076046 0.00051229
-0.06854005 0.00626501 -0.00042523
-0.08585867 -0.00308371 0.00093995
-0.06179091 -0.00106162 0.00035352
-0.07007261 0.00617466 -0.00048512
-0.06007609 -0.00526254 0.00003806
-0.06960645 -0.00447613 0.00046202
-0.07119585 0.00100507 0.00052867
-0.07309067 -0.00240228 0.00054782
-0.05944642 0.00661294 -0.00004307
-0.07988296 -0.00360025 0.00080039
-0.07789079 0.00567908 -0.00075858
-0.08691396 -0.00299225 0.00096022
-0.06265736 -0.00431927 0.00025811
-0.06192593 0.00024980 0.00060083
-0.07678635 -0.00346781 0.00071676
-0.08938592 -0.00256485 0.00096701
-0.08686861 0.00441274 -0.00059986
-0.08929748 0.00108307 0.00043007
-0.07486350 -0.00068436 0.00047781
-0.08772901 -0.00221486 0.00087166
-0.06323157 -0.00500573 0.00019005
-0.07456701 0.00180132 0.00040139
-0.07527585 -0.00363832 0.00064814
-0.06724235 0.00226729 0.00017387
-0.07266815 0.00257921 0.00030526
-0.06668048 0.00637371 -0.00034889
-0.07280503 0.00208343 0.00038247
-0.06450901 0.00369906 0.00004844
-0.07899991 -0.00367627 0.00077619
-0.07125639 0.00440962 -0.00002527
-0.06587574 0.00021590 0.00059212
-0.08671263 0.00516429 -0.00095837
-0.06051819 -0.00261332 0.00026653
-0.08703034 0.00117001 0.00022718
-0.07419244 0.00182744 0.00040203
-0.07340270 -0.00415515 0.00060147
-0.06948813 -0.00371379 0.00046321
-0.08552231 -0.00133614 0.00070041
-0.06346294 0.00655916 -0.00020736
-0.07370618 0.00002150 0.00059982
-0.07623293 0.00318172 0.00010744
-0.06542031 -0.00435367 0.00030726
-0.06471819 -0.00149565 0.00038392
-0.08797945 -0.00289988 0.00097936
-0.06486765 0.00472048 -0.00010169
-0.07917955 -0.00263414 0.00070575
-0.07992433 0.00430087 -0.00030817
-0.07942368 0.00370936 -0.00034918
-0.07103469 -0.00276459 0.00050706
-0.05954171 0.00379770 0.00048083
-0.06419068 -0.00111817 0.00037936
-0.07943668 0.00235607 -0.00000969
-0.07769699 0.00571688 -0.00074229
-0.06411678 0.00214102 0.00051544
-0.09045667 0.00076700 0.00050087
-0.06335082 0.00511552 -0.00009592
-0.08491361 -0.00316558 0.00092068
-0.06890597 0.00624350 -0.00043978
-0.06510986 0.00646467 -0.00028130
-0.06331593 0.00054456 0.00059559
-0.06306728 -0.00254294 0.00046018
-0.07398555 -0.00386625 0.00063141
-0.06410428 0.00400636 0.00002037
-0.06224966 0.00053737 0.00060077
-0.07219576 0.00470109 -0.00036077
-0.07039780 0.00086068 0.00030979
-0.07946418 0.00140680 0.00019573
-0.07116869 0.00401207 0.00006670
-0.06351914 0.00081281 0.00033259
-0.08858648 -0.00284725 0.00098967
-0.07127824 0.00540495 -0.00045989
-0.07384550 0.00276292 -0.00001089
-0.07500933 -0.00276686 0.00067996
-0.07039076 -0.00340826 0.00049262
-0.06516381 -0.00065339 0.00059003
-0.08657352 0.00440120 -0.00075735
-0.08908739 0.00501795 -0.00099941
-0.06390586 0.00360514 0.00007671
-0.06049835 0.00217632 0.00028263
-0.08128937 0.00549763 -0.00083984
-0.06079749 0.00670996 -0.00008110
-0.07795075 0.00199618 0.00008681
-0.07334373 0.00286760 0.00023954
-0.07219422 -0.00321344 0.00060618
-0.07365511 0.00203321 0.00012561
-0.07232542 -0.00324301 0.00054774
-0.07107453 -0.00425932 0.00051498
-0.08494150 -0.00126465 0.00078358
-0.08409039 0.00532571 -0.00090537
-0.06208146 -0.00070014 0.00036091
-0.07893293 0.00015957 0.00041107
-0.06770759 0.00392362 -0.00007474
-0.07082331 0.00613018 -0.00051346
-0.08326462 -0.00330830 0.00088454
-0.08570957 0.00522607 -0.00093905
-0.08756265 -0.00263655 0.00092754
-0.06302671 0.00526979 0.00013863
-0.08894943 0.00043182 0.00057049
-0.06723972 0.00206007 0.00019881
-0.08779117 0.00383031 -0.00040058
-0.07610308 0.00392686 -0.00031462
-0.07424871 -0.00408315 0.00063024
-0.08182092 -0.00102828 0.00072692
-0.07820765 0.00562534 -0.00070946
-0.08551704 -0.00118985 0.00078326
-0.06358531 0.00568557 0.00003100
-0.08856794 0.00051650 0.00055331
-0.07406554 -0.00395133 0.00061741
-0.08280814 -0.00124553 0.00075581
-0.08251347 0.00132935 0.00040962
-0.08466853 -0.00051252 0.00056213
-0.07331524 0.00598150 -0.00060281
-0.08318809 0.00538116 -0.00088526
-0.05934344 0.00642675 0.00011015
-0.06554074 -0.00377385 0.00040033
-0.06902726 0.00454066 0.00002936
-0.06354716 -0.00015691 0.00059410
-0.07615889 0.00577086 -0.00070780
-0.08693871 0.00233392 0.00012168
-0.07464869 -0.00379444 0.00063277
-0.06393109 -0.00173217 0.00053503
-0.07274370 -0.00412819 0.00057442
-0.07384162 0.00209230 0.00036575
-0.07242645 0.00048662 0.00056668
-0.06912758 0.00549909 -0.00020052
-0.07029965 0.00282625 0.00031314
-0.08764424 0.00043311 0.00056820
-0.08486230 -0.00059958 0.00071163
-0.08748467 0.00420312 -0.00071950
-0.08881112 -0.00148632 0.00085927
-0.06498941 -0.00178182 0.00038480
-0.06506028 -0.00325706 0.00034411
-0.07482352 0.00133253 0.00023167
-0.07212614 -0.00199504 0.00063655
-0.06399419 0.00542070 0.00006450
-0.07993544 0.00361736 -0.00033757
-0.07896332 0.00481541 -0.00043950
-0.08353572 -0.00002087 0.00046869
-0.07770296 0.00205828 0.00031691
-0.06608458 0.00396294 0.00024384
-0.06603991 0.00641091 -0.00032167
-0.07995762 0.00281250 -0.00012822
-0.08883778 0.00475515 -0.00082887
-0.06525687 -0.00159504 0.00039104
-0.07260188 0.00190221 0.00041167
-0.06585060 -0.00300032 0.00047537
-0.08019581 -0.00110897 0.00071602
-0.07679179 -0.00363645 0.00069763
-0.08150096 0.00519413 -0.00069100
-0.06440400 0.00351213 0.00007509
-0.06532898 0.00469798 -0.00011525
-0.06608386 -0.00477041 0.00031757
-0.06795729 0.00128964 0.00053066
-0.09038316 -0.00145340 0.00080699
-0.06100246 0.00276941 0.00052988
-0.08422281 0.00079821 0.00050208
-0.06797825 -0.00348326 0.00048803
-0.08884274 0.00102876 0.00026281
-0.07798094 -0.00376385 0.00074713
-0.07395893 0.00190460 0.00039334
-0.06485693 -0.00064580 0.00038298
-0.07143401 0.00263165 0.00005469
-0.08165332 -0.00127514 0.00074428
-0.06546210 0.00435829 0.00019894
-0.06832761 0.00186406 0.00020927
-0.06893704 -0.00453234 0.00043568
-0.08605482 0.00520481 -0.00094583
-0.08669791 0.00247691 -0.00013619
-0.08227389 -0.00339395 0.00086128
-0.07418471 -0.00408860 0.00062809
-0.08385970 0.00092959 0.00047903
-0.07027652 -0.00338798 0.00048928
-0.08361899 0.00362791 -0.00043091
-0.06228252 0.00662627 -0.00015245
-0.07336358 -0.00335934 0.00058030
-0.06291808 -0.00350945 0.00035981
-0.08990602 0.00496750 -0.00101202
-0.06025547 -0.00188709 0.00047829
-0.08390925 -0.00144474 0.00068724
-0.08728652 0.00223008 -0.00006830
-0.07441039 0.00539100 -0.00042449
-0.06954004 0.00087084 0.00031076
-0.06023057 0.00284673 0.00024043
-0.06288877 0.00015076 0.00059770
-0.08272127 -0.00335528 0.00087193
-0.06205494 -0.00510195 0.00013471
-0.07548268 0.00292100 -0.00007296
-0.08089590 0.00339839 -0.00030093
-0.08943360 -0.00138093 0.00077672
-0.08846049 0.00463691 -0.00089281
-0.06293597 0.00195692 0.00026397
-0.08935183 -0.00120422 0.00074472
-0.07165170 -0.00019195 0.00040993
-0.08398159 0.00418186 -0.00060992
-0.07161982 0.00430483 -0.00026232
-0.08202944 0.00117001 0.00044256
-0.08844967 -0.00162136 0.00079765
-0.07823276 -0.00192921 0.00073072
-0.06490915 -0.00130984 0.00056767
-0.07933403 0.00252886 0.00019274
-0.06051261 -0.00100006 0.00055087
-0.07339179 -0.00222887 0.00065436
-0.06381663 0.00653895 -0.00022350
-0.08849568 -0.00104615 0.00080211
-0.06472238 -0.00247354 0.00049482
-0.06120067 -0.00465914 0.00016756
-0.08410017 -0.00012846 0.00064716
-0.08593153 0.00238471 -0.00009897
-0.06469888 -0.00488503 0.00025683
-0.08368116 0.00441922 -0.00067277
-0.08820207 -0.00055091 0.00061004
-0.07226584 0.00284367 0.00000262
-0.06904650 0.00310847 0.00029720
-0.08664417 -0.00108634 0.00078546
-0.08288352 -0.00058078 0.00055273
-0.08011105 0.00556973 -0.00080951
-0.06141998 0.00667498 -0.00011131
-0.07902057 0.00088149 0.00029520
-0.07955983 0.00541841 -0.00068860
-0.09000024 0.00482824 -0.00099840
-0.08421981 -0.00073748 0.00059234
-0.06675354 0.00390252 -0.00004373
-0.06067526 -0.00353829 0.00030144
-0.07680715 0.00518032 -0.00046787
-0.06204854 -0.00060933 0.00036117
-0.08003865 -0.00229981 0.00069999
-0.06703854 0.00548991 -0.00009682
-0.06935114 -0.00218190 0.00058855
-0.06900546 0.00569615 -0.00041175
-0.06144943 0.00579417 -0.00008999
-0.07915152 -0.00261788 0.00070383
-0.06242082 0.00297449 0.00047815
-0.06826258 0.00601767 -0.00041986
-0.06523253 0.00579880 -0.00007835
-0.07976703 0.00424618 -0.00028534
-0.07607183 0.00576340 -0.00065092
-0.06315697 -0.00409273 0.00024261
-0.07997630 -0.00151861 0.00062690
-0.08554006 0.00304163 -0.00029202
-0.06607659 -0.00099469 0.00058783
-0.07214009 -0.00425554 0.00055415
-0.08022750 0.00355081 -0.00032679
-0.05998883 -0.00044089 0.00034960
-0.06792718 -0.00218043 0.00056593
-0.08677450 -0.00022417 0.00067474
-0.06652440 -0.00123954 0.00058483
-0.07702452 0.00150168 0.00042197
-0.07393885 -0.00197902 0.00054911
-0.08185673 0.00546287 -0.00085385
-0.07831516 -0.00373514 0.00075680
-0.07889325 0.00056287 0.00054731
-0.07952105 0.00002593 0.00043394
-0.06407695 -0.00377933 0.00036046
-0.06470505 0.00191892 0.00024513
-0.07168904 0.00468265 -0.00010727
-0.06720227 -0.00072256 0.00059926
-0.08201001 0.00100748 0.00026927
-0.07915026 -0.00171300 0.00073660
-0.07483198 0.00589032 -0.00065364
-0.06545103 0.00427381 -0.00005850
-0.08340373 0.00081175 0.00050141
-0.08337195 0.00093642 0.00028347
-0.06555080 0.00336787 0.00035012
-0.07879705 0.00450155 -0.00033076
-0.07045093 -0.00028230 0.00060758
-0.07280946 -0.00017378 0.00060967
-0.06800905 0.00275434 0.00037375
-0.08891908 -0.00083199 0.00067148
-0.08719755 0.00192312 0.00023287
-0.06751159 0.00279139 0.00037965
-0.07202138 -0.00131733 0.00063752
-0.06421310 -0.00150944 0.00037653
-0.07618614 0.00222926 0.00030672
-0.06432396 0.00492568 0.00014360
-0.07340362 -0.00188818 0.00053473
-0.07855106 -0.00371487 0.00076354
-0.08923441 -0.00045061 0.00060297
-0.08057483 0.00268567 -0.00010636
-0.08976490 0.00064786 0.00036200
-0.08584409 -0.00272313 0.00091679
-0.08391671 0.00035180 0.00057711
-0.06090494 -0.00519547 0.00007909
-0.06587964 0.00373896 0.00000510
-0.07111709 0.00611273 -0.00052437
-0.08536355 -0.00243132 0.00088570
-0.07603805 0.00142755 0.00044209
-0.06272547 -0.00071835 0.00036603
-0.08089135 -0.00295855 0.00081355
-0.08508476 0.00025164 0.00059488
-0.07601623 -0.00051471 0.00064289
-0.08239397 0.00066040 0.00052853
-0.08682850 0.00515715 -0.00096052
-0.06976160 0.00098113 0.00029889
-0.06218812 0.00468807 0.00000030
-0.05961291 -0.00256159 0.00025053
-0.07372728 -0.00363156 0.00059793
-0.06816380 0.00392506 -0.00008823
-0.06119776 0.00075067 0.00060642
-0.06416754 0.00124290 0.00030416
-0.09026546 0.00480000 -0.00099870
-0.07199435 -0.00345241 0.00059182
-0.06554052 0.00643981 -0.00030012
-0.07009394 0.00287058 0.00031061
-0.07387410 -0.00411505 0.00061761
-0.06991454 0.00358905 -0.00007897
-0.06844800 -0.00190426 0.00044403
-0.07762207 -0.00161433 0.00059435
-0.06668744 0.00067423 0.00033313
-0.07671638 -0.00354437 0.00071442
-0.06690653 0.00636055 -0.00035839
-0.08878206 -0.00085262 0.00077992
-0.07258808 -0.00422432 0.00057297
-0.07312298 0.00364289 0.00008648
-0.08990609 0.00001869 0.00065140
-0.06933411 0.00023533 0.00058688
-0.07718539 0.00252066 -0.00001536
-0.07888835 -0.00273866 0.00070582
-0.07516169 -0.00377666 0.00064943
-0.07826200 -0.00034489 0.00047450
-0.07509473 0.00569610 -0.00056533
-0.07290049 0.00100598 0.00028634
-0.06841661 0.00419340 -0.00014062
-0.06297734 0.00519521 -0.00009062
-0.08146786 0.00439988 -0.00059743
-0.07824220 0.00215101 0.00029120
-0.06276134 0.00163908 0.00056820
-0.07257733 -0.00234418 0.00063860
-0.08950066 -0.00059041 0.00074935
-0.08723079 0.00187135 0.00024631
-0.08605814 0.00050978 0.00037998
-0.08398604 0.00149547 0.00015536
-0.07869269 -0.00370269 0.00076756
-0.06170411 0.00096736 0.00033326
-0.08816696 -0.00288363 0.00098259
-0.06431786 0.00040999 0.00059311
-0.06663486 0.00531347 -0.00025568
-0.07695641 0.00471498 -0.00053019
-0.07316063 0.00599077 -0.00059748
-0.07730632 0.00339125 -0.00021762
-0.06740979 -0.00210200 0.00042517
-0.08655846 0.00053257 0.00037698
-0.06065874 0.00671773 -0.00007430
-0.06490352 -0.00331996 0.00033717
-0.06218534 -0.00420667 0.00025778
-0.07130828 -0.00072694 0.00044460
-0.06536461 -0.00434902 0.00033879
-0.07078938 0.00613219 -0.00051219
-0.06273447 0.00660064 -0.00017366
-0.06308466 0.00324652 0.00013921
-0.07982190 0.00558740 -0.00080182
-0.06999661 0.00111690 0.00028335
-0.08188939 -0.00274070 0.00082861
-0.06555660 0.00145595 0.00054388
-0.08115803 0.00406889 -0.00049460
-0.07291295 -0.00246948 0.00064242
-0.07982386 -0.00042363 0.00065800
-0.06055743 -0.00373732 0.00027273
-0.06861175 0.00101450 0.00029964
-0.08522226 0.00502387 -0.00089792
-0.08256105 0.00195996 0.00005135
-0.07566653 0.00158362 0.00018497
-0.06264008 0.00567384 0.00008114
-0.08106239 -0.00265680 0.00075602
-0.07103242 0.00215182 0.00013793
-0.07909480 -0.00074888 0.00068002
-0.06158022 -0.00256090 0.00029270
-0.08833190 0.00011582 0.00047754
-0.06956567 -0.00283171 0.00056422
-0.07545095 0.00101352 0.00050227
-0.06690345 0.00497302 -0.00021487
-0.08704098 -0.00090365 0.00065711
-0.08499513 0.00274029 -0.00019110
-0.08642662 -0.00111867 0.00078653
-0.06448313 -0.00390100 0.00035880
-0.06792581 -0.00181677 0.00058114
-0.07428790 -0.00407981 0.00063155
-0.08969491 -0.00179488 0.00090835
-0.07029850 0.00370438 -0.00010962
-0.08000440 0.00060453 0.00054018
-0.07852775 -0.00371687 0.00076288
-0.07274189 -0.00342007 0.00056288
-0.06072061 0.00485120 0.00030885
-0.06878267 0.00077164 0.00056034
-0.09025261 0.00143440 0.00014906
-0.07318087 -0.00068125 0.00046031
-0.08889458 -0.00034451 0.00057804
-0.07907660 -0.00157441 0.00061652
-0.07220974 0.00486797 -0.00039466
-0.06027532 -0.00238720 0.00027572
-0.07037652 -0.00422591 0.00048958
-0.07817640 -0.00269034 0.00074672
-0.08784339 0.00232045 -0.00010194
-0.08958922 0.00079278 0.00032483
-0.08785246 -0.00288487 0.00097121
-0.07520157 -0.00051711 0.00046586
-0.07575889 -0.00395426 0.00067951
-0.07844865 -0.00247003 0.00074840
-0.06018190 0.00674439 -0.00005078
-0.06637397 -0.00417153 0.00034864
-0.07766552 0.00143794 0.00019879
-0.08886226 0.00214670 0.00015080
-0.08759543 -0.00278364 0.00096232
-0.06967121 0.00230828 0.00013318
-0.06200312 0.00199701 0.00056091
-0.07212718 0.00150460 0.00022230
-0.06673382 -0.00372922 0.00037596
-0.06662684 0.00042570 0.00034956
-0.08778049 -0.00146160 0.00075959
-0.06340278 -0.00084102 0.00057576
-0.07515249 -0.00329388 0.00063153
-0.08812673 -0.00203195 0.00085406
-0.07855525 -0.00362132 0.00076548
-0.08810326 0.00002859 0.00049428
-0.05971733 0.00526140 0.00003669
-0.08035367 0.00057408 0.00054399
-0.08115230 0.00321559 -0.00025655
-0.07122992 0.00158840 0.00046855
-0.08026673 0.00095456 0.00028111
-0.08269330 -0.00335770 0.00087127
-0.08801945 0.00366137 -0.00054881
-0.06509867 0.00646532 -0.00028081
-0.06219023 0.00154925 0.00030058
-0.06230423 0.00662504 -0.00015347
-0.07167491 0.00054523 0.00056414
-0.07051776 -0.00097125 0.00062133
-0.06605474 0.00426628 -0.00007698
-0.07780374 -0.00113480 0.00069254
-0.08076896 0.00039353 0.00038215
-0.07289716 -0.00001360 0.00060082
-0.08184542 0.00049440 0.00055444
-0.08282609 0.00259548 -0.00011699
-0.08156053 0.00297813 0.00003691
-0.08327539 -0.00063230 0.00056492
-0.06485580 -0.00487207 0.00026382
-0.07703601 -0.00006906 0.00043115
-0.08787258 0.00218847 -0.00006169
-0.07175003 0.00002602 0.00059708
-0.07233325 0.00604026 -0.00056846
-0.08072335 0.00289018 -0.00016147
-0.08637183 0.00086704 0.00030074
-0.07099618 -0.00435904 0.00051503
-0.07314220 0.00576650 -0.00048559
-0.06925088 0.00503669 -0.00031517
-0.08656357 -0.00113848 0.00079034
-0.07835633 -0.00255757 0.00074826
-0.06769026 0.00631481 -0.00039084
-0.06761915 -0.00221262 0.00055949
-0.09015947 0.00295791 -0.00013583
-0.08638839 0.00396929 -0.00061060
-0.08938706 -0.00100232 0.00070940
-0.08780250 -0.00270930 0.00096087
-0.06685718 -0.00199221 0.00055886
-0.07490618 -0.00061017 0.00047166
-0.06092141 0.00493818 0.00002032
-0.09022074 -0.00145513 0.00087612
-0.07999419 -0.00337538 0.00078434
-0.08311853 -0.00117651 0.00063909
-0.07754309 -0.00007340 0.00043496
-0.06153470 -0.00346668 0.00033111
-0.08783160 0.00146006 0.00034636
-0.06726418 0.00548163 -0.00010579
-0.06846408 0.00626947 -0.00042219
-0.08181589 -0.00037739 0.00066514
-0.07775781 0.00445991 -0.00049462
-0.08387158 0.00029216 0.00041401
-0.08551929 0.00461935 -0.00063216
-0.06575726 -0.00035843 0.00038281
-0.08465014 0.00522427 -0.00092212
-0.08405109 0.00347234 -0.00039387
-0.07189082 0.00606667 -0.00055262
-0.06616450 0.00524837 -0.00000153
-0.08957896 0.00065367 0.00035987
-0.08093632 -0.00350944 0.00082805
-0.08423184 0.00105558 0.00025712
-0.06741552 0.00447427 0.00010445
-0.07249622 0.00003298 0.00039498
-0.07485366 -0.00332009 0.00066845
-0.06460959 -0.00141283 0.00056013
-0.06138050 0.00150029 0.00059180
-0.08298911 0.00116476 0.00043854
-0.07636680 -0.00118393 0.00053902
-0.07068650 0.00351742 -0.00008575
-0.08698589 0.00137886 0.00037110
-0.07089715 0.00368664 0.00014282
-0.06959778 0.00548368 -0.00040417
-0.07753425 0.00162162 0.00039747
-0.06646313 -0.00191220 0.00040864
-0.09015718 -0.00252185 0.00098127
-0.08628153 -0.00279880 0.00091364
-0.08239162 -0.00234809 0.00082109
-0.06049719 -0.00046404 0.00058067
-0.09045890 -0.00022645 0.00057001
-0.07037014 0.00254771 0.00035470
-0.07552303 0.00584862 -0.00067590
-0.07067155 0.00613918 -0.00050778
-0.08004690 -0.00261606 0.00072642
-0.06542814 -0.00482476 0.00028909
-0.07679820 0.00197588 0.00034429
-0.08776050 0.00365259 -0.00033247
-0.06176864 -0.00265730 0.00042603
-0.08877281 0.00277648 -0.00026148
-0.06693709 0.00261679 0.00013463
-0.06009875 0.00033055 0.00035267
-0.08616452 -0.00115052 0.00068341
-0.06335551 -0.00095007 0.00037098
-0.08318730 -0.00274561 0.00085785
-0.08477823 0.00528340 -0.00092005
-0.07290883 -0.00004821 0.00060289
-0.07640525 0.00538399 -0.00065997
-0.07134323 0.00272157 0.00030788
-0.08630359 -0.00218784 0.00088577
-0.07199895 -0.00427425 0.00055187
-0.06604732 0.00118309 0.00029695
-0.06587844 -0.00169813 0.00056027
-0.06668414 -0.00351516 0.00038119
-0.06380403 0.00508834 -0.00011052
-0.07472745 0.00276111 0.00023091
-0.07052520 -0.00398703 0.00049564
-0.06721041 0.00634284 -0.00037105
-0.08373686 0.00333219 -0.00011677
-0.09011842 0.00012929 0.00048797
-0.08898104 0.00082771 0.00031458
-0.06264205 0.00481454 0.00023365
-0.06286639 0.00620167 -0.00019152
-0.08508117 -0.00299677 0.00091684
-0.06480492 -0.00487628 0.00026155
-0.09026699 -0.00270156 0.00101595
-0.07866278 0.00375105 -0.00034041
-0.07061255 0.00279992 0.00004102
-0.08174103 -0.00164498 0.00067194
-0.08307996 -0.00148251 0.00077804
-0.06080627 0.00660567 -0.00010694
-0.06781856 0.00011166 0.00037087
-0.06188564 0.00642406 -0.00004249
-0.07487946 -0.00226628 0.00067995
-0.08810479 -0.00177421 0.00087962
-0.06863054 -0.00163936 0.00044396
-0.07724907 -0.00168559 0.00059331
-0.08380429 0.00040176 0.00039276
-0.06466868 -0.00190095 0.00037742
-0.06579336 0.00608355 -0.00017989
-0.07189584 0.00210088 0.00013506
-0.06775726 0.00308693 0.00005337
-0.06088901 -0.00223880 0.00045332
-0.06691854 -0.00360259 0.00038558
-0.08614670 0.00519915 -0.00094761
-0.06407418 0.00627153 -0.00025244
-0.06811958 0.00215164 0.00017609
-0.08843677 0.00138972 0.00016660
-0.06098550 0.00420872 0.00009506
-0.07536069 -0.00335447 0.00064007
-0.08861920 0.00504680 -0.00099184
-0.07881233 -0.00166043 0.00061956
-0.06301342 0.00498283 -0.00006621
-0.07295118 0.00295572 -0.00003138
-0.08978229 0.00315788 -0.00020037
-0.08250413 -0.00055586 0.00054481
-0.08696064 -0.00177796 0.00086127
-0.07029976 0.00518233 -0.00017393
-0.07774949 -0.00378372 0.00074036
-0.07601317 0.00354067 0.00002809
-0.07659856 0.00335009 0.00005864
-0.08992085 0.00287658 -0.00010222
-0.07209241 0.00431819 -0.00028007
-0.06798857 -0.00228105 0.00043612
-0.07933740 -0.00038935 0.00048973
-0.07629779 0.00417669 -0.00014539
-0.08815823 -0.00288438 0.00098244
-0.06759462 0.00628768 -0.00040222
-0.07230004 -0.00310488 0.00054482
-0.05927404 0.00679488 -0.00000528
-0.07756820 -0.00239187 0.00064967
-0.06880166 -0.00443923 0.00042921
-0.06153159 -0.00111613 0.00055029
-0.06346640 -0.00438259 0.00023528
-0.06333714 -0.00018399 0.00059356
-0.07548056 -0.00397805 0.00067063
-0.06985185 -0.00232426 0.00047533
-0.07238509 -0.00272017 0.00062637
-0.06857563 0.00315660 0.00030132
-0.08747590 -0.00294354 0.00097049
-0.08958740 -0.00108995 0.00072837
-0.08729234 0.00467038 -0.00086580
-0.06506633 0.00038573 0.00035119
-0.07576741 0.00434329 -0.00017262
-0.08787566 -0.00165701 0.00086383
-0.09013034 0.00088273 0.00030265
-0.08753708 0.00242814 -0.00013177
-0.06595926 -0.00140658 0.00057378
-0.08376703 0.00534559 -0.00089827
-0.06069231 -0.00062217 0.00035131
-0.08509069 0.00281120 -0.00021380
-0.08473710 -0.00262552 0.00088543
-0.08495670 0.00357407 -0.00044648
-0.06786406 -0.00462216 0.00039238
-0.07319577 0.00321776 0.00017435
-0.07368685 0.00032707 0.00057735
-0.08352570 0.00223309 0.00019757
-0.07164460 0.00453699 -0.00006996
-0.07440518 -0.00286853 0.00066573
-0.08090867 0.00356230 -0.00011266
-0.07189105 -0.00365266 0.00053964
-0.08536653 -0.00312635 0.00093005
-0.06459857 -0.00268534 0.00047577
-0.07965900 -0.00150417 0.00073363
-0.07572866 0.00583620 -0.00068242
-0.08519887 0.00064655 0.00052811
-0.08240431 0.00266527 -0.00012958
-0.06370168 -0.00271349 0.00033257
-0.06509348 -0.00118231 0.00038998
-0.06188549 0.00664873 -0.00013362
-0.06015033 -0.00298814 0.00035806
-0.05999666 0.00557022 0.00023185
-0.07829615 -0.00121077 0.00070175
-0.08599186 -0.00099978 0.00065734
-0.06527127 0.00283478 0.00013866
-0.08700218 -0.00132777 0.00081647
-0.06359811 -0.00478206 0.00021569
-0.07366875 -0.00306954 0.00064523
-0.06590060 -0.00279395 0.00038155
-0.06154179 -0.00165317 0.00033397
-0.07686667 0.00576730 -0.00071759
-0.06479446 -0.00197971 0.00037809
-0.06798937 0.00132724 0.00027190
-0.09007152 0.00209586 -0.00005325
-0.06524759 0.00105368 0.00031102
-0.08256334 0.00229705 0.00019554
-0.06002487 0.00389129 0.00045525
-0.08478375 0.00446826 -0.00072245
-0.07071511 0.00127694 0.00026117
-0.07771471 0.00432548 -0.00023724
-0.06415947 0.00188549 0.00025468
-0.08009070 -0.00181356 0.00065764
-0.07128226 0.00529955 -0.00024982
-0.08221221 0.00173944 0.00010738
-0.08563505 -0.00275610 0.00088993
-0.08367798 0.00135009 0.00019099
-0.06844993 -0.00435973 0.00041759
-0.08751118 -0.00208669 0.00084798
-0.08333242 0.00332017 -0.00033227
-0.08675128 -0.00216120 0.00084079
-0.06095858 -0.00117182 0.00054259
-0.07877392 0.00160109 0.00016074
-0.08022792 0.00485448 -0.00050556
-0.06177476 -0.00512478 0.00012130
-0.07973881 -0.00333495 0.00077326
-0.06057733 0.00403277 0.00012598
-0.06224267 0.00432456 0.00032349
-0.07320310 0.00595547 -0.00061188
-0.08555387 0.00446429 -0.00074557
-0.07279297 0.00037885 0.00036114
-0.07835480 -0.00096753 0.00068848
-0.07948570 -0.00208021 0.00075641
-0.07730590 0.00285383 -0.00009165
-0.08503828 -0.00201160 0.00078209
-0.08036107 0.00214263 0.00026306
-0.06452644 -0.00382354 0.00030252
-0.08885957 0.00503199 -0.00099576
-0.07283001 0.00203659 0.00038909
-0.08061156 -0.00279090 0.00080195
-0.06610940 -0.00191806 0.00040235
-0.07957006 -0.00158500 0.00073657
-0.06314602 0.00168177 0.00056080
-0.07736604 0.00382592 -0.00032494
-0.08520601 0.00113308 0.00023832
-0.08332737 -0.00242473 0.00084374
-0.06111631 0.00368210 0.00044232
-0.07803146 0.00569655 -0.00075201
-0.07112637 -0.00209877 0.00061924
-0.08965531 -0.00236888 0.00094324
-0.07532665 -0.00399120 0.00066569
-0.06622301 0.00421001 0.00019716
-0.07024865 0.00366651 0.00016607
-0.06537498 0.00430450 0.00021136
-0.08794921 -0.00270342 0.00094787
-0.06190297 -0.00224774 0.00046781
-0.07889257 0.00062016 0.00033944
-0.06626356 0.00492673 0.00006081
-0.06859566 0.00043407 0.00035009
-0.07422594 -0.00134873 0.00051965
-0.08049398 -0.00041495 0.00066113
-0.08265970 0.00541361 -0.00087305
-0.06530259 -0.00262584 0.00037235
-0.06037942 -0.00523803 0.00005317
-0.06862023 0.00557280 -0.00037713
-0.06892153 0.00031572 0.00058391
-0.07957908 0.00166275 0.00014270
-0.08975150 -0.00247428 0.00098256
-0.07104522 -0.00038645 0.00042027
-0.07179459 -0.00429155 0.00054446
-0.06658783 -0.00438328 0.00037414
-0.08060764 -0.00313622 0.00081179
-0.07575092 -0.00120466 0.00067426
-0.08437036 -0.00259284 0.00083605
-0.07047236 0.00615099 -0.00050029
-0.06884631 0.00624701 -0.00043741
-0.06641937 -0.00046434 0.00039053
-0.08242345 0.00051473 0.00036617
-0.07510648 0.00587377 -0.00066255
-0.08636912 0.00382582 -0.00035615
-0.07071011 0.00083420 0.00054592
-0.07938298 0.00035188 0.00038383
-0.07005668 0.00173344 0.00020817
-0.08350256 -0.00107893 0.00063185
-0.06334820 0.00364884 0.00037701
-0.06742198 0.00133441 0.00027493
-0.06192380 0.00358906 0.00013205
-0.06367977 0.00536263 -0.00014003
-0.08896364 0.00407524 -0.00053498
-0.06265801 -0.00078407 0.00036521
-0.06383178 -0.00219446 0.00050161
-0.08912525 0.00102612 0.00026364
-0.07186359 0.00381431 -0.00017278
-0.08235518 -0.00283584 0.00080741
-0.07268851 -0.00149856 0.00050427
-0.07292901 0.00488029 -0.00042344
-0.09002855 0.00347304 -0.00032534
-0.06387249 0.00653575 -0.00022604
-0.06777850 0.00003622 0.00059444
-0.08726936 -0.00279292 0.00094115
-0.07082265 -0.00311349 0.00057820
-0.07850534 0.00482283 -0.00042305
-0.06060362 -0.00206167 0.00046636
-0.07841570 0.00415157 -0.00043678
-0.08405616 0.00290588 -0.00022439
-0.08142660 0.00374194 -0.00018145
-0.06893702 0.00194345 0.00045762
-0.06969573 0.00434356 -0.00020771
-0.07314887 0.00300026 0.00021853
-0.06461804 0.00649299 -0.00025955
-0.07581595 -0.00351815 0.00066072
-0.08000514 0.00415126 -0.00048382
-0.08623062 -0.01288284 0.00046980
-0.06734565 -0.00373266 -0.00036854
-0.08254077 -0.01066905 0.00031559
-0.08197035 -0.00684400 -0.00085914
-0.08076397 -0.01203579 0.00060378
-0.06005218 -0.01137804 0.00029663
-0.05944222 -0.00522049 0.00018754
-0.08598056 -0.00925581 -0.00029777
-0.07684621 -0.00812863 -0.00022097
-0.08695548 -0.01191535 0.00022440
-0.08615015 -0.01431573 0.00072841
-0.05985515 -0.01195174 0.00025827
-0.08759389 -0.01352650 0.00057038
-0.05968453 -0.00513034 0.00047044
-0.08272998 -0.00700661 -0.00087749
-0.08428513 -0.01009943 0.00008544
-0.08462650 -0.00942302 -0.00013808
-0.05960043 -0.01044367 0.00032705
-0.06817957 -0.01218050 0.00059673
-0.07618279 -0.00813308 0.00006912
-0.07129040 -0.00512023 -0.00032268
-0.06420784 -0.00785510 0.00053212
-0.08808725 -0.01301790 0.00045151
-0.06538459 -0.00516823 -0.00010957
-0.07283580 -0.01160299 0.00046098
-0.07423423 -0.01023402 0.00029004
-0.08735325 -0.00932327 -0.00038834
-0.08755987 -0.01562909 0.00095749
-0.08212424 -0.00698598 -0.00078961
-0.08593457 -0.01313865 0.00052687
-0.06001095 -0.01118887 0.00046650
-0.07911544 -0.01543214 0.00081819
-0.06699798 -0.01208825 0.00043721
-0.07900733 -0.01500798 0.00077112
-0.07509110 -0.00937544 0.00036873
-0.07029702 -0.01381778 0.00059245
-0.06766301 -0.00644339 -0.00004560
-0.07485783 -0.00945871 0.00039058
-0.06797643 -0.01157736 0.00060598
-0.07247767 -0.01489111 0.00062680
-0.07386330 -0.01517172 0.00066481
-0.08292317 -0.01574984 0.00090857
-0.07836767 -0.01147890 0.00057625
-0.06400902 -0.00985957 0.00059467
-0.08344006 -0.01578256 0.00091956
-0.06249280 -0.00529137 0.00005797
-0.07245079 -0.00844492 0.00032315
-0.08857612 -0.01094035 -0.00013765
-0.08001112 -0.01311963 0.00059239
-0.06064919 -0.00232856 -0.00005756
-0.07802144 -0.00993857 0.00035398
-0.06845120 -0.00396602 -0.00041470
-0.06346278 -0.00746508 0.00024163
-0.07328111 -0.00777987 -0.00009915
-0.06903970 -0.01416882 0.00053580
-0.07655124 -0.00740226 -0.00037358
-0.07522269 -0.00751302 -0.00026459
-0.07413702 -0.01086591 0.00057855
-0.08217267 -0.00688730 -0.00086410
-0.08420650 -0.00948813 -0.00031448
-0.06462951 -0.00732057 0.00047723
-0.08654385 -0.01378675 0.00063613
-0.06896287 -0.01140230 0.00061652
-0.06551259 -0.00334664 -0.00028874
-0.07595642 -0.01530630 0.00072970
-0.06720544 -0.01473734 0.00042428
-0.06817168 -0.00582568 -0.00017102
-0.07221361 -0.01501286 0.00061423
-0.08923181 -0.00843562 -0.00096897
-0.07468547 -0.01403609 0.00069983
-0.08892445 -0.01165541 0.00006415
-0.06163480 -0.00919650 0.00059807
-0.06881711 -0.01041086 0.00038741
-0.07848480 -0.01480668 0.00074601
-0.08190703 -0.01511058 0.00085855
-0.07116763 -0.00683072 -0.00016712
-0.08050365 -0.00879928 -0.00027383
-0.08800710 -0.01553670 0.00091584
-0.07051511 -0.01495462 0.00055033
-0.05892651 -0.00694816 0.00060921
-0.07036316 -0.00516548 -0.00041762
-0.06545255 -0.01005632 0.00037947
-0.07890772 -0.01549488 0.00081244
-0.06462405 -0.01456570 0.00031711
-0.06580897 -0.00984064 0.00036886
-0.07758454 -0.00688582 -0.00056715
-0.06105636 -0.00611379 0.00020014
-0.07118219 -0.01057349 0.00038145
-0.07355350 -0.00945463 0.00043371
-0.07639022 -0.01533410 0.00074250
-0.06772106 -0.01040292 0.00060047
-0.07049709 -0.00512899 -0.00024866
-0.06769345 -0.01035819 0.00038927
-0.08102764 -0.01061175 0.00014659
-0.06293225 -0.00397492 -0.00011407
-0.06187503 -0.01438050 0.00019448
-0.07830637 -0.00606058 -0.00076072
-0.06318199 -0.01226591 0.00034656
-0.07477729 -0.01121597 0.00060036
-0.06102413 -0.00458982 0.00005695
-0.08787903 -0.01300687 0.00060745
-0.08246782 -0.01572099 0.00089862
-0.06139119 -0.01434762 0.00017200
-0.08611244 -0.01509982 0.00089855
-0.07922901 -0.01228514 0.00049070
-0.08581965 -0.01139649 0.00013753
-0.06435241 -0.00314259 -0.00025417
-0.06136272 -0.00869839 0.00034692
-0.07821649 -0.01300214 0.00071194
-0.06257040 -0.01424928 0.00024874
-0.08778201 -0.00808906 -0.00098156
-0.08873137 -0.01611709 0.00101411
-0.07944420 -0.00941118 0.00018048
-0.07483382 -0.00810242 -0.00011474
-0.06600290 -0.01408107 0.00038570
-0.07030426 -0.01194619 0.00062998
-0.07573882 -0.01196785 0.00064880
-0.08675654 -0.01442954 0.00074274
-0.07455118 -0.01176938 0.00064049
-0.06588412 -0.01074080 0.00059588
-0.07504742 -0.01147921 0.00061847
-0.07007175 -0.01259684 0.00049651
-0.07635385 -0.01433595 0.00067676
-0.08344311 -0.00774734 -0.00061948
-0.07522525 -0.01229648 0.00051663
-0.08143462 -0.00689509 -0.00083834
-0.06262442 -0.00540424 0.00035224
-0.07066411 -0.00557857 -0.00014964
-0.08517211 -0.01570719 0.00094196
-0.07054988 -0.00619707 0.00000089
-0.08074725 -0.01294795 0.00070383
-0.08552939 -0.01515576 0.00085344
-0.06264453 -0.00641567 0.00017034
-0.07367651 -0.00507375 -0.00061289
-0.07401684 -0.01381274 0.00068593
-0.07307665 -0.00732018 0.00007757
-0.08725583 -0.01455763 0.00076041
-0.08843152 -0.00822828 -0.00099267
-0.06067647 -0.00283468 -0.00007778
-0.08539220 -0.01297604 0.00050653
-0.06354005 -0.01334103 0.00038607
-0.06542298 -0.00788510 0.00022762
-0.07772932 -0.01379442 0.00065499
-0.07777594 -0.01092759 0.00031159
-0.06710804 -0.00482582 -0.00003928
-0.06712394 -0.01412944 0.00042649
-0.08843280 -0.01365189 0.00057922
-0.08207909 -0.00829994 -0.00030240
-0.07417685 -0.00686257 -0.00010327
-0.06693777 -0.00705705 0.00035764
-0.06505708 -0.01418588 0.00034521
-0.06944313 -0.01042489 0.00059510
-0.08208036 -0.01451810 0.00075734
-0.07631325 -0.01532917 0.00074024
-0.08340956 -0.01565332 0.00091316
-0.08307676 -0.00827400 -0.00039486
-0.06752281 -0.01133650 0.00043086
-0.08845739 -0.01609977 0.00101002
-0.08556507 -0.01181909 0.00044374
-0.07457590 -0.00880080 0.00029129
-0.07714186 -0.00581199 -0.00072601
-0.07010531 -0.01022326 0.00057962
-0.06956301 -0.01414975 0.00055500
-0.08943012 -0.01258852 0.00047498
-0.08954562 -0.01036870 -0.00039348
-0.07127060 -0.01087945 0.00040795
-0.06218875 -0.01197658 0.00046114
-0.08167099 -0.01545485 0.00087241
-0.08437215 -0.00793445 -0.00064000
-0.06058909 -0.01171282 0.00029489
-0.08898740 -0.00984442 -0.00053612
-0.08619568 -0.01488770 0.00087867
-0.06333897 -0.01213838 0.00048286
-0.06864899 -0.01451735 0.00050196
-0.07373765 -0.01516362 0.00066075
-0.06403423 -0.00629361 0.00010242
-0.08894575 -0.01071766 -0.00023339
-0.08037649 -0.01259297 0.00067222
-0.06536426 -0.01272144 0.00039571
-0.08340989 -0.01495678 0.00086733
-0.06341456 -0.01448454 0.00026423
-0.06302963 -0.00466302 0.00022303
-0.08796742 -0.01431559 0.00080920
-0.06794993 -0.00612355 0.00015694
-0.06979167 -0.00424947 -0.00046870
-0.08611431 -0.00773161 -0.00095066
-0.06713959 -0.01123590 0.00060107
-0.06135135 -0.01298471 0.00025017
-0.06295954 -0.00281103 -0.00017090
-0.08491264 -0.00774350 -0.00077595
-0.07249890 -0.00696564 -0.00021760
-0.08617103 -0.01309286 0.00065847
-0.06928227 -0.01022304 0.00058711
-0.08145197 -0.01164510 0.00034500
-0.07044100 -0.00438696 -0.00049408
-0.07290960 -0.00491073 -0.00058588
-0.07164088 -0.00510333 -0.00051135
-0.08207423 -0.01050794 0.00030054
-0.06069606 -0.00972223 0.00057859
-0.08699676 -0.01445723 0.00083238
-0.07277513 -0.00488216 -0.00058107
-0.06948850 -0.01481322 0.00051920
-0.08501925 -0.01514301 0.00089547
-0.06887691 -0.00455009 -0.00025490
-0.06448075 -0.00312987 -0.00024205
-0.06090976 -0.00727019 0.00057758
-0.08453567 -0.00938959 -0.00014210
-0.08043760 -0.01526549 0.00081750
-0.07867365 -0.00934879 -0.00003561
-0.06520612 -0.00328222 -0.00027501
-0.07368428 -0.00619597 -0.00023758
-0.06623908 -0.00811953 0.00049962
-0.06717355 -0.00960088 0.00034347
-0.08071011 -0.01560950 0.00085793
-0.06432396 -0.01178307 0.00038684
-0.08806557 -0.01033869 -0.00030133
-0.06119072 -0.00244145 -0.00008470
-0.06835030 -0.01220528 0.00059916
-0.08940615 -0.00944336 -0.00052628
-0.06687557 -0.01382497 0.00047751
-0.07139885 -0.01407366 0.00061619
-0.08285157 -0.00755520 -0.00078423
-0.07041725 -0.01080231 0.00060623
-0.06439107 -0.00348389 -0.00010743
-0.08592828 -0.01491590 0.00081998
-0.06000988 -0.01089585 0.00049206
-0.08723936 -0.01526354 0.00091923
-0.05953755 -0.00884826 0.00035383
-0.07311785 -0.01431647 0.00065924
-0.05902612 -0.00587448 0.00055717
-0.07561642 -0.01062516 0.00052851
-0.08816382 -0.01013798 -0.00037505
-0.06436281 -0.00653660 0.00011708
-0.07783560 -0.00889357 -0.00009807
-0.08874066 -0.01307856 0.00044714
-0.08496520 -0.01459514 0.00084797
-0.07621880 -0.00881772 0.00021678
-0.06836780 -0.00681087 -0.00002360
-0.06713523 -0.00911089 0.00055278
-0.08345839 -0.01113473 0.00017064
-0.06076367 -0.01430485 0.00014243
-0.07914717 -0.01349616 0.00074430
-0.06777815 -0.00856240 0.00049771
-0.07882031 -0.00900727 -0.00012360
-0.08601513 -0.01594542 0.00096968
-0.05939395 -0.00396375 0.00008333
-0.08186076 -0.01450511 0.00082317
-0.08473430 -0.01114144 0.00011912
-0.05854724 -0.01350302 0.00008617
-0.07765747 -0.01095652 0.00052504
-0.06150207 -0.00971607 0.00036282
-0.06721105 -0.01362163 0.00043612
-0.08628635 -0.01292512 0.00062939
-0.06626401 -0.01235885 0.00042277
-0.08220653 -0.01554611 0.00087287
-0.05863197 -0.01224787 0.00019311
-0.06144966 -0.00268096 -0.00002052
-0.07494324 -0.00678956 -0.00017987
-0.07149342 -0.00473251 -0.00054741
-0.07048115 -0.01224089 0.00048977
-0.07906063 -0.00683947 -0.00068419
-0.07561499 -0.00663326 -0.00048757
-0.07437947 -0.00655422 -0.00042114
-0.06512029 -0.00659855 0.00037982
-0.06061767 -0.00797833 0.00032947
-0.06570424 -0.00441879 -0.00022956
-0.07661784 -0.00648273 -0.00040832
-0.07177789 -0.01354194 0.00055408
-0.08420181 -0.01314540 0.00055760
-0.07872132 -0.01495038 0.00076153
-0.06440158 -0.00320573 -0.00018637
-0.06583011 -0.00341343 -0.00030285
-0.07771921 -0.01348398 0.00062830
-0.08486707 -0.01247500 0.00041990
-0.07658339 -0.01385475 0.00073228
-0.06223937 -0.01438184 0.00020943
-0.08324135 -0.01489827 0.00080888
-0.07584236 -0.00578409 -0.00067560
-0.07351718 -0.01064330 0.00035801
-0.06494550 -0.00594739 0.00030136
-0.08889999 -0.01340662 0.00051687
-0.08434782 -0.01212429 0.00053952
-0.07566314 -0.01058911 0.00052324
-0.08795259 -0.01287380 0.00058070
-0.08174053 -0.00939118 -0.00018973
-0.08738403 -0.00944836 -0.00034470
-0.06260596 -0.00909367 0.00059718
-0.08820019 -0.01415087 0.00068010
-0.06987971 -0.01104269 0.00061508
-0.08623868 -0.01181997 0.00041956
-0.08122805 -0.01091673 0.00041671
-0.06673375 -0.01046327 0.00060088
-0.08369142 -0.01549504 0.00088513
-0.07694865 -0.00761324 -0.00034922
-0.08836892 -0.00821486 -0.00099163
-0.08252601 -0.01572468 0.00089990
-0.06579686 -0.01070282 0.00040143
-0.08837700 -0.01097045 0.00009504
-0.08023884 -0.01495001 0.00082471
-0.07440784 -0.01520681 0.00068219
-0.06812293 -0.01169177 0.00060621
-0.06761420 -0.00453716 -0.00033373
-0.08375565 -0.00956927 -0.00003306
-0.07658385 -0.01451245 0.00074333
-0.07820564 -0.01014442 0.00038401
-0.07124554 -0.01319647 0.00053347
-0.06785523 -0.01085136 0.00041453
-0.07722050 -0.00937813 0.00003844
-0.07006597 -0.01145985 0.00062407
-0.06716966 -0.00498393 -0.00001073
-0.06951903 -0.01186633 0.00046583
-0.07983879 -0.01230729 0.00048633
-0.07817921 -0.01023929 0.00017515
-0.06605246 -0.00548532 -0.00010259
-0.06609090 -0.01466349 0.00037896
-0.07593706 -0.00675079 -0.00026997
-0.07008091 -0.01492628 0.00053452
-0.05945972 -0.00812256 0.00034535
-0.08332448 -0.01239341 0.00044018
-0.07683728 -0.01489763 0.00072216
-0.06874236 -0.00526556 -0.00029665
-0.07013389 -0.01132731 0.00044312
-0.07235604 -0.00479314 -0.00056594
-0.06624061 -0.00946152 0.00058117
-0.07587789 -0.00909410 0.00028708
-0.06710603 -0.01320261 0.00043739
-0.08664686 -0.01528482 0.00087501
-0.07675039 -0.01356905 0.00062828
-0.06700658 -0.00895747 0.00029330
-0.08532487 -0.01576208 0.00094818
-0.05975025 -0.00732718 0.00031535
-0.08797542 -0.01067306 0.00002827
-0.07145964 -0.01501612 0.00058396
-0.06497946 -0.00523833 -0.00007739
-0.07132907 -0.00704820 -0.00013560
-0.07730235 -0.01174635 0.00061978
-0.08760453 -0.00881180 -0.00078013
-0.06871114 -0.00470181 -0.00020080
-0.07514204 -0.01156167 0.00044348
-0.08091489 -0.01411377 0.00079152
-0.08680285 -0.00787918 -0.00096383
-0.06808989 -0.01479570 0.00045922
-0.08707269 -0.01004211 -0.00033184
-0.07534647 -0.00580399 -0.00063993
-0.06165149 -0.00892362 0.00060048
-0.06392364 -0.00301300 -0.00021631
-0.08258896 -0.01572867 0.00090129
-0.06320621 -0.00954479 0.00059548
-0.07528182 -0.00790575 -0.00018138
-0.06357151 -0.00357282 -0.00001378
-0.06792008 -0.00825615 0.00019691
-0.07174281 -0.00474518 -0.00055827
-0.06591292 -0.01376056 0.00038993
-0.08505417 -0.01281317 0.00048234
-0.08738802 -0.01488038 0.00081212
-0.06394216 -0.00357494 -0.00004558
-0.08514618 -0.00752415 -0.00093116
-0.08130200 -0.01305556 0.00071097
-0.07202209 -0.00875513 0.00013137
-0.06205610 -0.00964906 0.00059083
-0.07367066 -0.00936541 0.00041745
-0.07150216 -0.01344824 0.00054574
-0.07537420 -0.00838581 0.00017125
-0.08659906 -0.01373213 0.00062565
-0.08750431 -0.01534687 0.00092872
-0.06572826 -0.01228944 0.00053871
-0.07511498 -0.01435906 0.00070960
-0.08403141 -0.01581999 0.00093176
-0.08287234 -0.01086472 0.00013026
-0.07876785 -0.01548597 0.00080875
-0.08306309 -0.00854839 -0.00051606
-0.06921782 -0.00412806 -0.00044585
-0.08639636 -0.01167140 0.00038012
-0.06785303 -0.01279581 0.00056739
-0.05971191 -0.01423283 0.00009186
-0.08023080 -0.01435375 0.00072715
-0.06340870 -0.00544314 0.00031459
-0.06280209 -0.01444325 0.00023681
-0.08434944 -0.01519820 0.00085338
-0.07263237 -0.00726149 0.00009243
-0.08295869 -0.01224903 0.00059226
-0.08245818 -0.01346619 0.00074480
-0.07574252 -0.01370820 0.00071653
-0.06621062 -0.00360781 -0.00033989
-0.08609951 -0.00835606 -0.00080501
-0.06639531 -0.01122173 0.00041784
-0.08536137 -0.01446398 0.00083609
-0.08791762 -0.01016352 -0.00034945
-0.08867595 -0.01442571 0.00081808
-0.08585440 -0.00771526 -0.00090761
-0.07742526 -0.00982257 0.00012088
-0.08763291 -0.00805710 -0.00097893
-0.07409518 -0.00883926 0.00006567
-0.08715070 -0.01601719 0.00098931
-0.07799526 -0.00905624 -0.00006891
-0.08767640 -0.01516020 0.00085603
-0.08793937 -0.01107328 -0.00005921
