ply
format ascii 1.0
element vertex 704
property float x
property float y
property float z
property float nx
property float ny
property float nz
end_header
0.07418929 0.00609130 -0.00135834 -0.13734218 -0.27134679 0.95263217
0.06533739 0.00151563 -0.00149264 0.92720269 0.06907153 0.36813625
0.10372938 0.00459388 -0.00007200 0.07437357 0.99722910 0.00163859
0.08868321 0.00572664 -0.00090539 0.04163927 0.98265033 -0.18073323
0.06500150 0.00089055 0.00020707 0.99999966 -0.00076309 0.00031962
0.06500514 -0.00184722 0.00027731 0.99997600 -0.00682015 0.00122050
0.07077918 -0.00706763 0.00074921 -0.08700776 0.99225357 -0.08867078
0.08880128 -0.00571430 0.00099472 -0.18135588 0.91334714 -0.36456418
0.10500235 0.00251078 -0.00016148 0.99998094 -0.00084576 -0.00611645
0.08104988 -0.00622468 -0.00125816 0.03514996 -0.97316450 -0.22741005
0.08775785 -0.00001713 0.00115625 0.01454274 -0.00007904 0.99989425
0.08735847 -0.00080067 0.00116312 0.01425997 -0.00084142 0.99989797
0.06976391 0.00714736 0.00137386 0.15888035 0.80983026 0.56474064
0.06637475 -0.00739516 0.00139416 0.09519186 -0.94597752 0.30994361
0.10499864 0.00486170 -0.00055033 0.99798139 -0.06336189 0.00429247
0.09403896 0.00532253 -0.00000576 0.07746069 0.99698995 0.00329977
0.06827567 0.00725625 -0.00070519 -0.07768815 -0.99695186 0.00717964
0.10500524 0.00596982 -0.00037567 0.99999535 0.00217553 0.00213521
0.10500143 0.00477486 -0.00090294 0.99922342 -0.02290812 0.03205882
0.06500375 -0.00313779 -0.00070901 0.99999749 -0.00188425 -0.00121635
0.10484484 0.00279998 -0.00090280 0.99861349 -0.01891209 -0.04912670
0.10500454 -0.00454858 -0.00036587 0.99858186 0.04571376 -0.02728602
0.10499825 -0.00052338 -0.00053595 0.99996765 -0.00219554 0.00773872
0.07445776 0.00679571 -0.00073352 0.07313480 0.99732118 0.00133028
0.08990968 0.00562684 0.00055950 -0.07086958 -0.99715754 -0.02558008
0.06961400 -0.00045120 0.00142961 0.01483163 -0.00035473 0.99988994
0.06499837 0.00183473 0.00059043 0.99997772 0.00260614 0.00614565
0.06788072 0.00259452 0.00145570 0.01578593 0.00051932 0.99987526
0.09274683 0.00128988 0.00109087 0.01386564 -0.00081343 0.99990354
0.10499424 -0.00248269 -0.00080522 0.99999972 0.00043159 0.00060745
0.08971087 0.00381066 -0.00112362 -0.01345639 -0.00003574 0.99990946
0.10017257 0.00486428 0.00035140 0.07457281 0.99721235 -0.00253354
0.09461096 -0.00527508 0.00087649 -0.09622933 0.98079580 -0.16964526
0.08346486 0.00595443 -0.00122041 0.03271483 0.80134743 -0.59730398
0.06500198 -0.00196850 -0.00077795 0.99999580 -0.00289802 0.00006160
0.08324966 -0.00613367 0.00106706 -0.10288050 0.98612303 -0.13029571
0.06500228 0.00261043 -0.00110073 0.99999743 0.00208198 -0.00089871
0.10499614 -0.00338729 -0.00045414 0.99999746 -0.00143191 -0.00174290
0.06500346 -0.00216880 0.00127183 0.99200824 0.00339989 -0.12612728
0.08699712 -0.00584580 0.00070667 0.05059965 -0.99674107 0.06282442
0.06499688 -0.00345758 -0.00041660 0.99999992 0.00036255 0.00017201
0.06500376 -0.00007846 0.00108709 0.99998748 -0.00493580 0.00082400
0.08734690 0.00151768 0.00116885 0.01483309 -0.00032825 0.99988993
0.06500372 0.00231893 -0.00115701 0.99999951 0.00075945 0.00063301
0.08727361 0.00582605 0.00047352 -0.07469479 -0.99720568 0.00123064
0.09524422 0.00382964 -0.00104626 -0.01077833 -0.03832054 0.99920737
0.07565456 -0.00143375 0.00133801 0.01566953 -0.00037199 0.99987716
0.08033247 0.00635107 0.00125524 0.10616255 0.94571716 0.30716211
0.06499768 0.00310828 -0.00092991 0.99999220 -0.00377407 -0.00116392
0.09782110 -0.00201658 0.00101114 0.01500817 0.00074577 0.99988709
0.09399735 0.00498613 -0.00106195 -0.00048168 -0.65966865 0.75155641
0.10500064 0.00356546 -0.00044478 0.99999567 0.00055594 -0.00288982
0.07179751 -0.00698652 0.00054062 -0.07664987 0.99705806 0.00015038
0.10500405 0.00255247 0.00049229 0.99996839 0.00057961 -0.00792985
0.06500182 0.00311187 0.00102091 0.99998124 -0.00166990 0.00589409
0.06500030 -0.00095963 0.00106981 0.99999294 0.00198063 0.00319284
0.08632177 -0.00590355 0.00015165 0.07293742 -0.99733586 -0.00114941
0.10384039 -0.00458783 -0.00031659 -0.07747534 0.99698925 0.00316356
0.06500026 0.00202972 0.00007558 0.99999199 -0.00342158 -0.00207826
0.10333745 -0.00258694 -0.00092520 -0.01524210 0.00085484 0.99988347
0.06652811 -0.00136197 -0.00147566 -0.14870161 0.05064839 -0.98758421
0.10500015 -0.00062570 0.00009519 0.99997362 0.00185464 -0.00702325
0.07224322 0.00695587 0.00043767 0.07632006 0.99708065 -0.00232731
0.10149963 0.00476119 0.00017567 -0.07490538 -0.99718850 0.00206913
0.10500084 -0.00607185 0.00133108 0.99999998 0.00005283 0.00017322
0.10293101 -0.00465714 -0.00038038 -0.07600242 0.99057373 0.11396193
0.07303486 -0.00037739 -0.00137928 -0.01544073 0.00058368 0.99988061
0.10500141 0.00312109 0.00044266 0.99998058 0.00610520 0.00125402
0.08463739 0.00602728 0.00024448 0.07479200 0.99719876 -0.00088631
0.08022249 -0.00635985 -0.00126774 -0.08403146 0.80544889 0.58667776
0.09170177 0.00550778 -0.00040673 0.07839770 0.99660151 -0.02528301
0.10400069 -0.00457194 -0.00044924 -0.08266211 0.99168424 0.09863748
0.08925974 0.00568392 0.00077425 -0.04343200 -0.97902026 -0.19908036
0.06500294 0.00300013 0.00078239 0.99999510 -0.00182272 0.00254444
0.06851604 -0.00463228 0.00144373 0.01586678 -0.00020859 0.99987409
0.09011055 -0.00562229 -0.00089495 0.05895118 -0.90066664 -0.43049315
0.08315492 -0.00614365 -0.00072487 -0.07349147 0.99729501 -0.00129312
0.10043138 -0.00484119 -0.00062694 -0.11640115 0.95418817 0.27563691
0.08052586 0.00632595 0.00127534 0.05529752 0.92723763 0.37036815
0.09218245 0.00494806 0.00108912 -0.01610852 0.30985354 0.95064783
0.07413116 0.00681169 -0.00005268 0.07269816 0.99735394 0.00030391
0.07537768 0.00331307 -0.00134333 -0.01469636 -0.00044209 0.99989190
0.06499921 0.00330376 0.00014957 0.99999275 -0.00128159 -0.00358675
0.07716772 0.00658455 -0.00041208 -0.07365764 -0.99728276 -0.00128598
0.07515873 -0.00673657 0.00085295 -0.09032608 0.99205013 -0.08762272
0.06698913 -0.00735302 0.00132261 -0.07270103 0.93488135 -0.34743548
0.06500094 -0.00083312 -0.00019088 0.99996208 0.00098062 0.00865259
0.06757458 0.00730561 -0.00131301 0.08711465 0.98079320 -0.17451573
0.10500275 0.00154416 -0.00049854 0.99999914 0.00130897 -0.00000579
0.07001463 0.00392145 -0.00142305 -0.01580805 0.00013282 0.99987504
0.06761418 0.00540672 0.00146043 0.01577632 -0.00153884 0.99987436
0.08752310 -0.00050568 -0.00115990 -0.01353410 0.00019679 0.99990839
0.10499871 -0.00163612 0.00004270 0.99999897 0.00117345 0.00082231
0.08464936 0.00602396 -0.00062323 -0.02283685 -0.99572594 0.08948923
0.08797756 0.00578012 0.00061937 0.07273094 0.99735070 0.00133657
0.07637268 -0.00663858 -0.00097821 0.10384034 -0.96045676 -0.25834087
0.06500390 0.00237852 -0.00059565 0.99999628 -0.00089117 0.00257758
0.08509433 0.00598866 0.00042340 0.07806453 0.99694799 -0.00080236
0.10500033 -0.00130674 -0.00078707 0.99541419 0.00072821 -0.09565593
0.09805973 0.00501643 0.00036091 0.07200462 0.99738363 0.00642027
0.09410677 0.00531755 0.00101659 0.19254833 0.77397044 0.60323701
0.10499899 0.00100549 0.00083591 0.99854031 -0.01806636 0.05090043
0.09890811 -0.00125592 0.00098970 0.01405449 0.00119721 0.99990051
0.10181364 -0.00036179 -0.00094971 -0.01632886 -0.00023959 0.99986665
0.08647726 0.00588844 -0.00018065 0.07434966 0.99723035 0.00193936
0.07359822 0.00367539 -0.00136762 -0.01587198 0.00113456 0.99987339
0.10163082 -0.00176224 -0.00095366 -0.01441586 0.00061543 0.99989590
0.07258500 -0.00692843 -0.00103284 0.05820933 -0.99767996 -0.03530408
0.06693668 -0.00364365 0.00147252 0.01471653 0.00022588 0.99989168
0.07809883 -0.00085529 -0.00129820 -0.01391814 0.00014086 0.99990313
0.09408135 -0.00531855 -0.00038320 -0.07169381 0.99742668 0.00012055
0.10499767 0.00028031 -0.00027360 0.99999884 -0.00080441 0.00129422
0.10500036 0.00522979 -0.00048113 0.99998815 -0.00476525 0.00099645
0.10499945 0.00375895 0.00065378 0.99976396 -0.00159402 0.02166774
0.02344758 0.06072307 -0.00003819 0.30718518 0.95164727 0.00217825
0.02749741 0.09961236 -0.00084433 0.73767813 -0.19085116 0.64761626
0.02615942 0.08409900 -0.00125102 -0.00307008 -0.03165034 0.99949429
0.03075832 0.07400578 -0.00004785 0.97152102 -0.23695098 0.00107109
0.02476482 0.09250853 0.00104427 0.88098113 -0.30489247 -0.36181878
0.02738166 0.06051736 0.00148322 0.82118857 -0.18596661 0.53950509
0.02708656 0.09861307 -0.00080353 0.92594977 -0.37758084 0.00705222
0.02797251 0.07641105 -0.00131340 -0.01140732 0.00309969 0.99993013
0.01764476 0.07558837 -0.00050560 0.92446910 -0.38125673 -0.00043597
0.01488716 0.06885358 0.00043573 0.92479195 -0.38046149 -0.00298583
0.03049715 0.09860467 0.00092835 0.00417565 0.01428661 0.99988922
0.03680891 0.09844410 -0.00035186 0.15469224 0.98604497 0.06152738
0.03410355 0.08771558 0.00046994 0.96474308 -0.26136473 0.03097200
0.03369320 0.09655241 -0.00094582 -0.00535373 -0.01365252 0.99989247
0.03587312 0.09874618 0.00021114 0.31602501 0.94875021 -0.00111234
0.01703201 0.07409556 -0.00060268 0.92540860 -0.37896437 0.00221774
0.02590929 0.09300335 -0.00102578 0.10471880 -0.03893954 0.99373924
0.02462248 0.09260431 -0.00062274 0.90950693 -0.35734989 0.21236336
0.01869420 0.06226835 -0.00046759 -0.31068114 -0.95051419 -0.00000253
0.02418690 0.06681751 -0.00141071 -0.00503196 -0.01466292 0.99987983
0.03062139 0.09794556 -0.00093607 -0.00388092 -0.01403819 0.99989393
0.03021469 0.07179125 0.00093122 0.96540238 -0.21659910 0.14520010
0.02212584 0.08550188 0.00110332 0.62551747 -0.22870677 -0.74593640
0.02740280 0.06025151 0.00011714 0.97133776 -0.23769150 0.00239092
0.03129622 0.07622453 -0.00004218 0.97117410 -0.23836895 0.00104924
0.03732516 0.09827547 0.00030197 0.30817848 0.95131796 0.00448951
0.03084284 0.07434702 0.00035792 0.97153627 -0.23688854 0.00104903
0.03067044 0.07844465 -0.00127194 -0.19951990 -0.01947662 0.97970019
0.01587477 0.07126322 -0.00101552 0.92943223 -0.36853322 0.01841183
0.03605863 0.09868289 -0.00083197 0.24424119 0.96929014 -0.02868559
0.03051761 0.08885618 -0.00106882 -0.00577813 -0.01693482 0.99983990
0.01776206 0.06257946 0.00011417 0.30510465 0.95231023 0.00404738
0.02008809 0.08153276 0.00023211 0.92621418 -0.37699770 -0.00017497
0.02338923 0.08960443 0.00093749 0.82025328 -0.41167758 -0.39712231
0.02948656 0.10082143 -0.00035741 -0.31332479 -0.94964015 0.00334169
0.03458704 0.08969732 -0.00081162 0.91255261 -0.30246984 -0.27524486
0.02815540 0.10125095 0.00010647 0.31978651 0.94589038 -0.05502708
0.02997483 0.10066446 -0.00081675 -0.38739368 -0.91852066 0.07903119
0.02243497 0.06105500 -0.00065682 -0.30231549 -0.95320658 0.00160350
0.03547584 0.09888526 0.00014356 -0.30437869 -0.95255051 -0.00106672
0.02009894 0.06181416 0.00117921 -0.29259857 -0.94271493 0.16023305
0.02663202 0.09751069 -0.00058454 0.92171104 -0.38514516 0.04595606
0.03377003 0.08634025 -0.00030033 0.97147558 -0.23713396 -0.00164096
0.01378061 0.06387072 -0.00015731 0.30832012 0.95128196 0.00115592
0.02356311 0.06068993 0.00098150 0.30713363 0.95166164 -0.00300850
0.02765798 0.08460175 0.00104991 -0.00424385 -0.00505027 0.99997824
0.01765376 0.07561644 -0.00043946 0.92454183 -0.38108050 -0.00024342
0.03333594 0.09956793 -0.00053121 0.31415088 0.94937258 0.00096170
0.01493740 0.06349099 0.00004556 0.30607807 0.95199862 0.00385342
0.02071128 0.08305751 -0.00033459 0.92555130 -0.37862185 0.00053594
0.02876806 0.08075271 -0.00129231 -0.01970676 -0.01417286 0.99970534
0.02722312 0.05952165 0.00010143 0.64230375 -0.73941526 -0.20176960
0.02401429 0.07184038 0.00133691 0.00407661 0.01703725 0.99984654
0.03131260 0.07629176 -0.00108591 0.93475321 -0.29931214 -0.19143847
0.02365008 0.06601751 -0.00142361 -0.00474121 -0.01454198 0.99988302
0.02850247 0.09059487 0.00104801 0.00326658 0.01298102 0.99991041
0.02584021 0.09556535 0.00095266 0.92764664 -0.33074987 -0.17342499
0.02579223 0.09435601 0.00100292 0.54916822 -0.28158765 -0.78684348
0.02896312 0.10098898 -0.00085816 0.28384521 0.95664726 -0.06525279
0.02412947 0.08955570 -0.00108779 0.28072398 -0.13344181 0.95046690
0.02058609 0.06165411 0.00036137 0.30911657 0.95102246 -0.00179755
0.02897405 0.10099319 0.00070712 -0.31479611 -0.94915925 0.00034529
0.02634565 0.06175737 -0.00147609 -0.06762545 0.01850686 0.99753912
0.02764759 0.09996802 0.00034256 0.92546752 -0.37882058 -0.00220012
0.02169061 0.08545033 0.00047412 0.92455412 -0.38105063 0.00030844
0.03563171 0.09882071 0.00088772 -0.35988772 -0.93245416 -0.03178143
0.02713761 0.08928986 -0.00107440 -0.00642527 -0.02353315 0.99970241
0.02990253 0.07920143 -0.00128343 -0.02078499 -0.00696986 0.99975967
0.01956242 0.08024807 0.00037164 0.92606972 -0.37735227 -0.00037394
0.03590515 0.09509990 0.00083874 0.97618082 -0.20434049 0.07291064
0.02991803 0.10068235 0.00055454 -0.31472196 -0.94907826 -0.01416170
0.03298444 0.09968833 -0.00090688 0.31017045 0.95067754 -0.00254998
0.01597094 0.06725188 -0.00144176 0.04289175 -0.02357810 0.99880147
0.02198047 0.06120005 -0.00071887 -0.31047372 -0.95058147 0.00096317
0.02897915 0.08687478 0.00106622 -0.00072926 0.00132469 0.99999886
0.02015168 0.06179686 -0.00084218 -0.31010375 -0.95070035 0.00212443
0.01984906 0.08096195 0.00111733 0.90488214 -0.31683971 -0.28425502
0.02237562 0.06107269 0.00036955 0.30820459 0.95131634 -0.00267517
0.01885959 0.07853525 0.00118771 0.89715321 -0.34780303 -0.27230346
0.01833482 0.06239214 0.00101304 0.30734869 0.95158965 0.00373105
0.03428953 0.08846552 0.00089702 0.87420278 -0.13164572 0.46737448
0.03050645 0.09565981 0.00097510 0.00451216 0.01427419 0.99988794
0.02447755 0.06719359 0.00140529 0.00471605 0.01475174 0.99988007
0.02942071 0.09470979 0.00098383 -0.00627960 -0.01509618 -0.99986633
0.03471742 0.09023529 -0.00098701 0.87290269 -0.20344397 -0.44345399
0.02153298 0.08506602 0.00029317 0.92547947 -0.37878786 0.00274203
0.02945757 0.08384636 0.00105873 -0.01067008 -0.00101757 0.99994256
0.02286522 0.08832292 0.00076383 0.93809591 -0.30600401 -0.16228866
0.02093110 0.08360877 -0.00077939 0.93171853 -0.33935272 0.12938435
0.03523968 0.09240009 -0.00074153 0.95682588 -0.17591081 -0.23138630
0.02016389 0.08172937 0.00074712 0.92565381 -0.37836840 0.00154355
0.02949697 0.08176724 -0.00126499 -0.02061671 -0.01754795 0.99963344
0.01351147 0.06550321 0.00146235 0.87807288 -0.36955489 -0.30400199
0.01579614 0.07078593 -0.00139028 0.71133454 -0.23592553 0.66207425
0.03157013 0.09609719 0.00096204 0.00628212 0.01622779 0.99984859
0.02378795 0.06061489 0.00088536 -0.30746306 -0.95155228 0.00383808
0.03371383 0.09541302 -0.00095221 -0.00568867 -0.01423932 0.99988243
0.02478887 0.08703750 0.00108003 0.00734611 -0.00443563 0.99996318
0.01914141 0.06212197 -0.00078582 -0.31174647 -0.95016147 -0.00270664
0.02886497 0.09321590 -0.00100692 -0.00516948 -0.01426089 0.99988495
0.03363213 0.09381007 -0.00098397 -0.00570127 -0.01566771 0.99986100
0.03073924 0.08041783 0.00110529 0.01153755 0.00074482 0.99993316
0.03506680 0.09166445 -0.00087158 0.94663037 -0.29190861 -0.13667589
0.01995625 0.08122884 0.00001792 0.92551745 -0.37870303 -0.00121085
0.02266826 0.06284121 -0.00147685 -0.00531126 -0.01429751 0.99988368
0.02972200 0.10074236 0.00094158 0.31931451 0.94764800 0.00122765
0.03414674 0.08789146 0.00084811 0.97096491 -0.21550662 0.10384621
0.01874284 0.06226216 0.00063371 -0.31456776 -0.94920695 0.00729941
0.02535771 0.09441970 0.00051615 0.92471092 -0.37161112 -0.08255233
0.02793326 0.06242708 0.00059754 0.97096966 -0.23918868 0.00258675
0.03141862 0.07670556 0.00039301 0.97119350 -0.23829198 -0.00033275
0.02816882 0.07972271 0.00108206 -0.00973458 0.02206292 0.99970919
0.03151262 0.10015985 0.00070085 0.27667119 0.95861375 0.06717683
0.01395894 0.06657450 0.00130175 0.88782510 -0.34707740 -0.30216530
0.03150398 0.07706280 -0.00019314 0.97153782 -0.23688399 -0.00049230
0.01931198 0.07516409 0.00131188 0.00736461 0.01884642 0.99979527
0.02536578 0.09442116 0.00023013 0.92499726 -0.37996908 0.00188893
0.02395409 0.07796893 0.00115261 0.01787550 0.03090546 0.99936246
0.01455480 0.06805910 -0.00117772 0.86942190 -0.44972439 0.20458135
0.02871833 0.06565596 0.00030827 0.97153589 -0.23688812 -0.00142574
0.02935778 0.08712701 -0.00112328 -0.01310895 -0.03165575 0.99941286
0.01898555 0.06217571 -0.00080205 0.30798452 0.95139132 0.00030658
0.02146853 0.06137343 0.00087260 -0.30934927 -0.95094849 -0.00007381
0.03622749 0.09862682 -0.00100696 0.31066605 0.95051255 0.00353521
0.01742181 0.06268708 0.00148162 0.26975031 0.88705651 -0.37465385
0.01421509 0.06483601 -0.00148551 -0.18617442 -0.02325533 -0.98224145
0.03183297 0.08134429 -0.00121453 -0.42670228 0.03947201 0.90353037
0.03184425 0.07843281 -0.00118082 0.97646279 -0.20804898 -0.05688613
0.02249687 0.06159918 0.00149306 -0.17956930 -0.63178163 0.75406023
0.03773554 0.09813932 0.00030246 0.30792645 0.95140832 0.00187336
0.03062142 0.10044165 -0.00089500 -0.25031874 -0.96814488 0.00600223
0.03566604 0.09734023 0.00091819 -0.18481248 0.15597436 -0.97031765
0.02935931 0.10086962 0.00050021 0.30730357 0.95160145 0.00438013
0.02877779 0.06589886 0.00137698 0.92436610 -0.32829919 0.19433721
0.02314927 0.06082832 0.00016187 0.30670925 0.95180098 0.00207842
0.03634708 0.09859465 0.00064961 -0.31375079 -0.94950335 -0.00195670
0.01790116 0.06252815 -0.00078168 0.31112437 0.95036775 -0.00166241
0.02086991 0.08345237 -0.00112974 0.90414147 -0.34035208 0.25824150
0.01805242 0.06248052 0.00019046 0.30649238 0.95186898 0.00280424
0.02931349 0.06808149 0.00132984 0.93278629 -0.25460039 0.25512424
0.02768724 0.09619359 -0.00097054 0.02900362 -0.02182205 0.99934108
0.02550227 0.09475772 -0.00100027 0.82311373 -0.44364324 0.35449185
0.02835406 0.07332226 0.00127538 -0.00150675 0.02869463 0.99958709
0.02897926 0.08468749 -0.00119809 -0.01569055 -0.02828304 0.99947680
0.01814625 0.07680628 0.00077704 0.92588442 -0.37780185 -0.00194709
0.02068194 0.06162736 0.00068432 -0.30459129 -0.95248014 0.00239460
0.01610260 0.06310792 -0.00082912 0.30869832 0.95116000 0.00001463
0.03117473 0.07568449 0.00064311 0.96932110 -0.24325603 0.03525765
0.02574297 0.09533618 -0.00082969 0.77109657 -0.35499018 0.52857549
0.02755928 0.09977173 0.00089593 0.76300880 -0.38910882 -0.51615104
0.02164924 0.06131299 -0.00032595 0.30682748 0.95176515 0.00004990
0.01793237 0.06252004 0.00038011 0.31013049 0.95069354 0.00093299
0.02189412 0.07401532 -0.00131927 0.00124657 -0.00233043 0.99999651
0.01491899 0.06350408 -0.00077885 0.31089367 0.95044470 0.00003828
0.01423651 0.06727153 0.00032408 0.92472047 -0.38064687 0.00011947
0.02994528 0.10066836 -0.00101781 0.37079703 0.92571550 -0.07456791
0.02639553 0.05977260 0.00001912 0.30461891 0.95247419 0.00048688
0.03347935 0.09696645 -0.00094730 -0.00507942 -0.01377846 0.99989217
0.03123824 0.10025236 0.00013283 -0.31426571 -0.94932590 -0.00417098
0.02078084 0.08324248 -0.00014687 0.92588903 -0.37779503 0.00064191
0.01473072 0.06356072 0.00090601 -0.31023514 -0.95064147 -0.00591296
0.03307458 0.09965963 0.00100605 0.30927326 0.95097256 0.00111433
0.03417434 0.08800973 0.00032041 0.97176046 -0.23594766 0.00321230
0.01893276 0.06218482 -0.00075431 0.30880568 0.95112422 0.00132985
0.03019635 0.07171562 0.00006984 0.97156201 -0.23678506 0.00031561
0.02680695 0.09792022 -0.00095287 0.74605959 -0.27167485 0.60793739
0.03178977 0.10008045 0.00078917 -0.21377962 -0.97526129 -0.05624659
0.01836837 0.07735772 -0.00117395 0.79463886 -0.39431538 0.46158906
0.03356154 0.08547740 0.00067502 0.96080519 -0.25759202 0.10246820
0.03611680 0.09867218 -0.00045287 0.31282849 0.94980533 -0.00285682
0.02792049 0.06239362 -0.00072624 0.96468207 -0.25023607 -0.08228256
0.03450978 0.09919181 -0.00090443 0.31247538 0.94992572 -0.00050590
0.01475166 0.06355707 0.00044687 0.31115369 0.95034793 -0.00470992
0.03071523 0.08724303 -0.00108415 -0.01352108 -0.02539010 0.99958618
0.01778436 0.07590812 -0.00107846 0.89628748 -0.40756349 0.17481638
0.01815299 0.06244421 -0.00037960 0.31131153 0.95030493 -0.00237939
0.02198035 0.06120682 0.00117536 -0.37120119 -0.92087151 0.11918610
0.02813955 0.10125902 -0.00095897 0.32170528 0.94526269 0.05462750
0.01925561 0.06208714 0.00035398 -0.30651894 -0.95186319 -0.00161321
0.01717181 0.06276898 0.00000424 -0.30518442 -0.95228856 0.00299376
0.02850455 0.10113957 0.00027156 -0.30012138 -0.95390067 -0.00081307
0.03360827 0.08779462 -0.00106358 -0.44995746 0.09535638 0.88794450
0.02694621 0.07316350 0.00128102 0.00114258 0.03002942 0.99954836
0.02391944 0.07242550 -0.00133113 -0.00345990 -0.00615154 0.99997509
0.02725424 0.10154661 -0.00004250 -0.30755200 -0.95152828 -0.00238596
0.02562150 0.06002112 -0.00033072 0.31041773 0.95059951 0.00118897
0.02412955 0.06050688 -0.00060760 0.31108020 0.95038359 -0.00038379
0.02835257 0.09145286 0.00103567 0.00375564 0.01318964 0.99990596
0.01852196 0.06233078 0.00016675 0.31119268 0.95034291 0.00273477
0.02825933 0.06376407 -0.00035905 0.97195606 -0.23515802 0.00145550
0.02147140 0.08492856 0.00088565 0.85961302 -0.39947991 -0.31856124
0.02817758 0.07310820 0.00127884 -0.00117013 0.02623245 0.99965519
0.03645112 0.09734327 -0.00055101 0.97120813 -0.23822810 -0.00146687
0.01847648 0.06233815 0.00036068 0.31229990 0.94998264 -0.00132781
0.03355386 0.09949843 -0.00086882 0.30734509 0.95159771 -0.00089404
0.03005282 0.07253077 0.00130659 0.66870120 -0.27338664 0.69144663
0.01870477 0.07541679 -0.00130907 -0.25179424 0.10016646 -0.96258316
0.02613268 0.05985105 -0.00076029 0.30814329 0.95133952 0.00091326
0.02037461 0.08223964 -0.00041643 0.92637701 -0.37659371 -0.00167582
0.01647629 0.06299389 -0.00071821 0.30870782 0.95115688 0.00025917
0.03218225 0.09163281 -0.00101718 -0.00377216 -0.01427455 0.99989100
0.02526424 0.08893387 -0.00108891 -0.00205667 -0.02725133 0.99962650
0.01817755 0.07688397 0.00081505 0.92529641 -0.37924209 -0.00140883
0.02880082 0.06874339 -0.00135974 0.34258043 -0.16680415 -0.92456207
0.03570986 0.09879739 0.00024356 -0.31110853 -0.95037415 -0.00067891
0.01832497 0.06756749 -0.00142369 -0.00414789 -0.01393755 0.99989426
0.03021703 0.10058466 -0.00009687 0.30810236 0.95134052 -0.00491477
0.02926453 0.08299681 -0.00123729 -0.01877659 -0.02555902 0.99949696
0.01880298 0.06223798 0.00088947 0.31446151 0.94926674 -0.00257107
0.03018184 0.10059233 -0.00053819 0.32682740 0.94341168 -0.05619829
0.02343297 0.07482042 0.00126150 0.01265288 0.02949803 0.99948475
0.02654020 0.10178354 0.00061584 0.30912025 0.95102213 0.00126000
0.01642073 0.06301208 0.00016481 0.30973329 0.95080443 0.00601833
0.02558331 0.09494800 -0.00011034 0.92463479 -0.38085406 -0.00083418
0.02155782 0.06280533 -0.00147957 0.06285582 0.18403710 0.98090748
0.01814003 0.06244804 0.00030839 0.30785431 0.95141794 0.00544230
0.02523975 0.06266349 0.00146594 0.00404694 0.01517315 0.99987669
0.02777281 0.07726090 -0.00132365 -0.01043075 0.00504102 0.99993289
0.02006082 0.06182463 -0.00026326 -0.31108003 -0.95037191 -0.00473755
0.02865768 0.10109688 -0.00004594 -0.30993089 -0.95075583 0.00248865
0.02969456 0.08550270 -0.00116364 -0.01469714 -0.02835189 0.99948995
0.02060423 0.06165082 -0.00043720 -0.31140146 -0.95027824 -0.00063596
0.02975760 0.06991669 0.00092981 0.93753616 -0.27034031 0.21895674
0.02994896 0.08425849 0.00106522 -0.01107785 -0.00019203 0.99993862
0.01863924 0.06228910 0.00025518 -0.30994462 -0.95074458 -0.00436842
0.03672042 0.09845111 -0.00012161 -0.31470047 -0.94759511 0.05501933
0.03262574 0.09773755 -0.00093077 -0.00498010 -0.01506631 0.99987409
0.03478141 0.09910258 0.00040758 -0.30716261 -0.95165704 -0.00004576
0.03636742 0.09747974 0.00091889 -0.53561723 0.16278831 -0.82862183
0.01923400 0.06209732 -0.00103429 0.30786481 0.95143007 -0.00027284
0.03380021 0.09909593 0.00090262 -0.02192882 0.91507206 0.40269375
0.03489578 0.09906538 0.00040052 0.30988694 0.95077217 -0.00153909
0.01636631 0.06845171 0.00142022 -0.11519015 0.05030710 0.99206876
0.02278126 0.06094460 -0.00061804 0.31033311 0.95062380 -0.00278377
0.03340306 0.09955129 -0.00055808 0.31076969 0.95048219 0.00240962
0.01410730 0.06376336 -0.00001885 0.31025384 0.95065206 -0.00179237
0.03438586 0.08885321 0.00085009 0.89413236 -0.27077252 0.35666450
0.02386560 0.08897556 -0.00109423 -0.34838960 0.12375820 -0.92914401
0.03332359 0.09934041 0.00090819 -0.02348943 -0.86629975 0.49897193
0.02460928 0.08637231 0.00107239 0.00943468 -0.00466020 0.99994463
0.02692324 0.07703193 0.00115493 0.00078697 0.03556902 0.99936691
0.03628958 0.09667682 -0.00087324 0.95696988 -0.26817579 -0.11086201
0.03311552 0.09964463 0.00066682 0.31029053 0.95064104 0.00118398
0.01459921 0.06359914 0.00097808 0.30667282 0.95179026 0.00686115
0.03173408 0.10008666 -0.00139320 0.30475211 0.95240614 0.00697819
0.03441499 0.08898884 -0.00080519 0.92542510 -0.30837693 -0.22020912
0.02005138 0.06685322 -0.00143084 -0.00445965 -0.01376755 0.99989528
0.01658345 0.06296163 -0.00052943 0.30440541 0.95254099 0.00173551
0.03636083 0.09696755 -0.00000740 0.97129052 -0.23789446 -0.00097584
0.02218681 0.06113073 -0.00127341 -0.29124116 -0.95113146 -0.10260376
0.02051375 0.06642803 0.00143265 0.00460966 0.01430362 0.99988707
0.02215063 0.08618264 -0.00117912 0.92601237 -0.34994584 0.14155919
0.01620858 0.07206867 0.00036446 0.92595312 -0.37763774 -0.00074751
0.02584181 0.08273603 -0.00129253 -0.00110301 -0.02863324 0.99958938
0.02442224 0.06040917 0.00082241 -0.30906980 -0.95103875 -0.00107034
0.03475467 0.09036516 -0.00091056 0.91402397 -0.19662618 -0.35482154
0.02248252 0.06103959 0.00083953 0.30937293 0.95093076 -0.00436873
0.02773012 0.07854219 0.00110242 -0.00476253 0.03120841 0.99950155
0.01791924 0.06252455 -0.00029639 0.31141008 0.95027462 -0.00138258
0.02168929 0.07567428 -0.00132273 0.00626809 0.00266378 0.99997681
0.03414410 0.09931193 0.00085729 0.32978848 0.94311441 0.04212796
0.01562047 0.06481745 -0.00147058 0.05018012 0.11007687 0.99265555
0.02046274 0.08245112 -0.00001216 0.92535047 -0.37911147 -0.00100444
0.01855041 0.06232052 -0.00134373 0.27810327 0.92682698 0.25229013
0.02434879 0.06043746 -0.00138250 0.30988147 0.95077427 0.00132872
0.01553666 0.06329631 0.00043053 -0.31189173 -0.95011760 0.00032091
0.02355182 0.07363638 -0.00131826 0.00453219 0.00135778 0.99998881
0.02719912 0.07881192 -0.00133033 -0.01096603 -0.00173687 0.99993836
0.01473781 0.06355948 0.00039809 0.31083830 0.95045084 -0.00476894
0.02020388 0.08091724 -0.00126518 0.45976812 -0.28800409 0.84003984
0.02087557 0.07358553 0.00133668 0.00972759 0.01902857 0.99977162
0.03485910 0.09081506 -0.00085137 0.95965507 -0.23554245 -0.15356397
0.02979291 0.08212703 0.00106498 -0.01598477 0.00498159 0.99985983
0.02529665 0.06691795 -0.00139950 -0.00464697 -0.01480899 0.99987954
0.03146332 0.10018274 0.00004814 -0.31407019 -0.94939717 0.00221860
0.02560258 0.10208233 -0.00120471 0.31225446 0.94999598 -0.00219073
0.02956383 0.10079818 0.00068482 0.30863970 0.95116981 0.00418768
0.02089441 0.07476646 -0.00130836 0.00398439 -0.00185631 0.99999034
0.02641833 0.07078614 -0.00134527 -0.00507690 -0.01497333 0.99987500
0.02242786 0.08724928 -0.00058709 0.92472428 -0.38063610 0.00108178
0.02532004 0.09431809 -0.00079530 0.91668867 -0.36781318 0.15619011
0.02782534 0.06197088 -0.00086817 0.97189459 -0.21517608 -0.09549950
0.01829288 0.06702431 -0.00143251 -0.00394879 -0.01493495 0.99988067
0.02950643 0.07426437 -0.00130403 -0.13779282 0.01485240 0.99034971
0.03637244 0.09858310 0.00045530 -0.31106703 -0.95038782 0.00053341
0.01897455 0.07880329 -0.00122112 0.84572145 -0.18946902 0.49885540
0.02217520 0.06113261 -0.00020331 0.30803686 0.95137407 0.00081547
0.01453547 0.06362347 -0.00037122 0.30814639 0.95133059 0.00398847
0.02962951 0.07952237 0.00110413 -0.01491706 0.02414593 0.99959715
0.02530190 0.09426476 -0.00045939 0.92578950 -0.37803924 -0.00037186
0.02297185 0.06088050 0.00015341 -0.30649008 -0.95187032 0.00259322
0.03254805 0.08133929 -0.00119056 0.86547939 -0.12268086 -0.48569006
0.02581591 0.06577662 0.00140998 0.00497962 0.01554881 0.99986671
0.03394315 0.09936871 0.00029554 -0.30853155 -0.95120650 0.00380488
0.02506356 0.09369536 0.00059973 0.92463526 -0.38085315 0.00071728
0.02564033 0.06001167 0.00018798 0.30815285 0.95133448 0.00212672
0.02516864 0.08866319 -0.00110220 -0.00002753 -0.03082736 0.99952472
0.01823632 0.06241830 -0.00078059 0.30779654 0.95144948 -0.00227396
0.03405313 0.08751189 0.00044770 0.97102953 -0.23679175 0.03211427
0.03116650 0.07570008 -0.00090595 0.96076149 -0.23822701 -0.14207479
0.02414885 0.07911626 0.00111951 0.02023034 0.02557517 0.99946818
0.01490884 0.06684648 0.00145373 -0.24095762 0.19968058 0.94977213
0.03222171 0.08000323 -0.00080023 0.97120401 -0.23824906 0.00038949
0.02516470 0.09392777 -0.00050282 0.92604960 -0.37739603 -0.00209175
0.03232961 0.09899172 -0.00091166 0.03962614 -0.05633876 0.99762504
0.03304748 0.09966551 -0.00022035 0.30881307 0.95112108 0.00178358
0.02508763 0.07850401 -0.00134152 0.00323892 0.00119202 0.99999404
0.01378999 0.06616942 -0.00099674 0.89643568 -0.34470898 0.27852970
0.03100874 0.09086704 0.00103323 0.00498595 0.01494132 0.99987594
0.02866252 0.10108823 -0.00034182 0.31102578 0.95039741 -0.00277867
0.02709714 0.07648514 -0.00132745 -0.00854510 0.00271298 0.99995981
0.02855105 0.08890410 -0.00107478 -0.00956984 -0.02428897 0.99965917
0.03500685 0.09903145 0.00037038 0.31121592 0.95033824 -0.00137182
0.03453053 0.08946728 -0.00011092 0.97177741 -0.23587443 0.00345156
0.03018570 0.10059546 -0.00103233 -0.27337943 -0.96027847 0.05593706
0.02540429 0.08746297 -0.00114570 -0.00182922 -0.03241994 0.99947266
0.02916936 0.10092167 0.00045555 0.31275605 0.94983341 0.00038035
0.01682759 0.06287611 -0.00082475 0.30872651 0.95111381 -0.00839371
0.02398228 0.07236667 -0.00133234 -0.00342010 -0.00690056 0.99997034
0.02441548 0.06041394 0.00097121 0.31153268 0.95023470 -0.00118344
0.01532976 0.06993605 -0.00084856 0.92290151 -0.37199007 0.09937900
0.02547072 0.06007335 -0.00030554 -0.31006548 -0.95071511 0.00042543
0.02936295 0.06828001 -0.00117857 0.95439176 -0.20482819 -0.21721368
0.03408859 0.09932420 -0.00004605 -0.31593218 -0.94877475 -0.00365038
0.01502490 0.06920227 0.00081546 0.91257724 -0.39132231 -0.11861547
0.01824585 0.07705356 0.00104392 0.92459824 -0.34860231 -0.15360509
0.03485204 0.09081342 0.00009314 0.97142446 -0.23733632 0.00244812
0.03209494 0.09855325 0.00092305 0.00661001 0.01381106 0.99988277
0.03466492 0.09913966 0.00017050 0.30687764 0.95174554 0.00255619
0.02335074 0.06075610 -0.00085591 -0.30594040 -0.95205021 0.00093080
0.03462491 0.08984345 0.00069409 0.92149808 -0.11838428 0.36990059
0.02075960 0.06160447 0.00004223 0.30812787 0.95134458 0.00083602
0.03528498 0.09256398 0.00095841 0.95094738 -0.20846744 0.22856159
0.03553897 0.09397674 -0.00097158 0.84234117 -0.19142327 -0.50380402
0.03318416 0.08395933 0.00032536 0.97120632 -0.23823593 0.00138677
0.03228970 0.08027610 -0.00042075 0.97167062 -0.23633688 0.00104230
0.03268379 0.09978100 -0.00089613 0.30819381 0.95132319 0.00086930
0.03161351 0.07748617 0.00057737 0.97178524 -0.23586662 0.00062499
0.01696762 0.06283258 0.00044539 -0.31050562 -0.95056312 -0.00400144
0.03128121 0.07614042 0.00065962 0.97311521 -0.22942060 0.02032200
0.03064930 0.09622324 0.00095772 0.00492802 0.01575627 0.99986372
0.02774747 0.10022219 0.00090939 0.79795324 -0.21293741 -0.56385130
0.02950334 0.10081814 0.00109879 0.30821362 0.95131120 -0.00337002
0.02496590 0.06951633 0.00136918 0.00459666 0.01416063 0.99988917
0.02553614 0.06004496 -0.00057856 0.31037264 0.95061431 -0.00111813
0.02986507 0.10069772 -0.00006326 0.30990439 0.95076685 -0.00128931
0.02619773 0.09644531 -0.00088629 0.92434298 -0.32766308 0.19551715
0.03149755 0.07705456 0.00041155 0.97156564 -0.23676896 0.00081604
0.03237409 0.08063684 0.00006497 0.97171233 -0.23615222 -0.00269726
0.02151026 0.06135501 0.00043462 -0.30738090 -0.95158649 0.00037934
0.02046575 0.07750185 -0.00130725 0.01314313 -0.00523627 0.99989991
0.01601677 0.07161848 -0.00063020 0.92575647 -0.37811241 -0.00244204
0.02831072 0.06397005 -0.00010510 0.97208871 -0.23461107 0.00108587
0.03501961 0.09902173 -0.00107123 0.30415745 0.95262129 0.00096052
0.01493835 0.06349015 -0.00092241 0.31120935 0.95033687 -0.00292720
0.02829146 0.10121293 -0.00010459 0.26708156 0.96362922 -0.00928263
0.03419204 0.09372963 -0.00097759 -0.01589564 -0.01271938 0.99979275
0.02805067 0.06291052 -0.00052316 0.97123052 -0.23814106 -0.00033335
0.03696214 0.09839368 -0.00109894 0.27964136 0.95786563 0.06552969
0.02331509 0.06076510 0.00043380 0.31068058 0.95051297 -0.00163421
0.02645874 0.09708227 0.00034205 0.92562213 -0.37844900 0.00014609
0.01650954 0.06298662 -0.00036116 -0.30623612 -0.95195513 -0.00093158
0.03133682 0.09956454 -0.00090712 -0.05345611 0.05899325 0.99682608
0.02834994 0.06414746 0.00039222 0.97153848 -0.23688058 -0.00075475
0.02410843 0.06051143 -0.00088364 0.31118090 0.95034462 0.00339915
0.02841267 0.06440669 -0.00079071 0.97214765 -0.23263125 -0.02848933
0.02437670 0.06694658 -0.00140735 -0.00437788 -0.01436058 0.99988730
0.02713539 0.06117993 0.00147289 0.77310527 -0.17037694 0.61096640
0.01771969 0.06259008 0.00028132 -0.30642759 -0.95189369 0.00073113
0.03505785 0.09901486 -0.00119976 0.30630585 0.95193315 -0.00011015
0.03081027 0.10040047 0.00036803 -0.30363730 -0.95278021 0.00377691
0.02949729 0.07037324 -0.00133916 -0.62873983 0.18716461 0.75475534
0.03650325 0.09755366 -0.00028193 0.97156620 -0.23676495 -0.00121919
0.03169186 0.08573233 0.00107496 -0.01135959 0.00014238 0.99993547
0.01919719 0.07936959 0.00090303 0.90415931 -0.31751872 -0.28579329
0.03557208 0.09373016 0.00009441 0.97135973 -0.23761228 -0.00082129
0.03660050 0.09850535 -0.00100889 0.31270070 0.94981857 0.00793406
0.02392898 0.07463188 -0.00133195 0.00129038 0.00242791 0.99999622
0.02510005 0.08183706 0.00105099 0.01407070 0.00732253 0.99987419
0.02631832 0.10185130 0.00129086 0.30810354 0.95135275 -0.00038708
0.02892717 0.10100832 0.00026432 0.31336292 0.94962198 0.00466736
0.02342568 0.06073207 -0.00089656 -0.31028461 -0.95064270 -0.00138737
0.02892604 0.06650515 -0.00105266 0.96805526 -0.20312150 -0.14700567
0.03234985 0.09660006 -0.00094662 -0.00463124 -0.01402067 0.99989098
0.02668718 0.06371316 0.00143703 -0.10178975 -0.00817847 -0.99477232
0.03567055 0.09412010 -0.00078379 0.96940196 -0.22403180 -0.10034738
0.01985984 0.08097832 0.00011947 0.92494525 -0.38010019 0.00035442
0.03457010 0.09917088 -0.00010977 -0.30318642 -0.95291742 0.00513778
0.02989589 0.07047337 -0.00037062 0.97172655 -0.23610655 0.00109964
0.02327013 0.06078233 -0.00111432 -0.30762547 -0.95150398 -0.00259634
0.03276961 0.09976555 0.00091338 0.30776118 0.95146123 0.00214161
0.03059962 0.07337143 0.00068288 0.97331184 -0.22942307 0.00539575
0.02369856 0.06391152 -0.00145136 -0.00428478 -0.01398019 0.99989309
0.02158234 0.06133237 -0.00085719 0.30978400 0.95080292 0.00276993
0.02922284 0.06956081 0.00134576 -0.63483865 0.11175358 -0.76452013
0.03028826 0.09423917 -0.00098732 -0.00543738 -0.01360463 0.99989267
0.03015671 0.10060466 -0.00064004 0.33382028 0.94182066 -0.03921561
0.02755188 0.10145468 0.00082064 0.30715665 0.95165840 0.00104232
0.03415415 0.08795010 -0.00045614 0.97203822 -0.23481830 -0.00143857
0.01949960 0.06200829 -0.00074391 0.30837913 0.95124768 0.00549148
0.03547094 0.09335251 0.00008249 0.97154405 -0.23685826 0.00056284
0.02982869 0.07017931 0.00041537 0.97136786 -0.23757890 -0.00086672
0.03293946 0.09969448 0.00032082 0.31026644 0.95063254 -0.00570142
0.03323316 0.09121410 0.00101963 0.00533971 0.01453993 0.99988003
0.02616355 0.09636685 0.00083858 0.88693296 -0.40004166 -0.23090387
0.02574133 0.09533091 -0.00064179 0.85443519 -0.40345053 0.32736549
0.01795836 0.07635637 0.00110615 0.90921387 -0.38741841 -0.15243723
0.01342875 0.06528018 -0.00004871 0.92506821 -0.37979971 -0.00099396
0.02600521 0.06576732 -0.00141757 -0.00425124 -0.01525281 0.99987463
0.02780938 0.09798319 0.00094842 0.17605862 -0.08006396 -0.98111830
0.01849196 0.07764652 -0.00018086 0.92509372 -0.37973886 0.00006361
0.02762025 0.09638944 0.00097223 -0.03599663 0.03994899 0.99855311
0.02234685 0.06108623 0.00070503 -0.31022585 -0.95065271 0.00439908
0.02349933 0.07735361 0.00118705 0.01826529 0.03131638 0.99934262
0.02476444 0.09295377 -0.00009894 0.92589381 -0.37777549 0.00251561
0.02493800 0.06023985 0.00050198 0.30764302 0.95149986 0.00194830
0.02788230 0.07542433 -0.00131950 -0.01075748 0.00163193 0.99994080
0.03392310 0.08698121 -0.00101169 0.77350193 -0.18870861 -0.60504862
0.02918927 0.06757183 -0.00098622 0.96336182 -0.23352679 -0.13190618
0.02541985 0.07354035 -0.00133227 -0.00169516 0.00340846 0.99999275
0.03735504 0.09826308 -0.00043122 -0.30584712 -0.95207726 0.00253643
0.02346801 0.08978671 0.00042455 0.92514570 -0.37960840 0.00170563
0.02363688 0.06066350 0.00056805 -0.30322495 -0.95291845 0.00102909
0.03787085 0.09810215 -0.00012897 -0.30675595 -0.95178820 -0.00010867
0.02320203 0.06542294 0.00143258 0.00431003 0.01456330 0.99988466
0.03657285 0.09784752 -0.00058458 0.97117278 -0.23837257 -0.00139491
0.02736155 0.10151102 -0.00103874 -0.31274439 -0.94983585 0.00167564
0.02882147 0.08128577 0.00105576 -0.01400946 0.01119072 0.99983924
0.02140535 0.07027731 0.00137176 0.00489737 0.01360417 0.99989547
0.02245426 0.08157365 -0.00128738 0.01319419 -0.01797341 0.99975140
0.02545931 0.07888984 0.00110049 0.01149291 0.02940687 0.99950145
0.02992931 0.10067917 0.00045182 0.30467183 0.95245736 -0.00021905
0.02004814 0.08060890 0.00119022 0.42910398 -0.25704174 -0.86590953
0.01604971 0.07169094 -0.00088928 0.92538712 -0.37901922 -0.00176336
0.02443392 0.06040708 -0.00106529 0.31170574 0.95017868 0.00004489
0.03196034 0.09618131 -0.00096170 -0.00541121 -0.01441434 0.99988147
0.01298914 0.06422869 0.00080073 0.83570897 0.54675784 -0.05144296
0.03155991 0.10015522 -0.00013509 0.31108003 0.95038274 -0.00136490
0.01767624 0.06260316 -0.00060907 0.30946432 0.95090816 0.00234433
0.02768338 0.09751033 0.00095640 -0.14941559 0.05327868 0.98733802
0.03243933 0.09985881 -0.00003180 0.30789410 0.95142061 0.00019441
0.03453291 0.09527666 0.00095143 -0.05078733 -0.01631813 -0.99857617
0.03121844 0.09292751 0.00100313 0.00453785 0.01368208 0.99989610
0.03046151 0.08053652 0.00109967 -0.01646356 0.01544881 0.99974511
0.02733020 0.07027780 -0.00134943 -0.00558495 -0.01385038 0.99988848
0.03770117 0.09815471 0.00054054 -0.30920198 -0.95099437 -0.00196037
0.01781683 0.07351675 -0.00134709 0.29702708 -0.13465334 0.94532714
0.02139047 0.07606509 0.00125463 0.01834546 0.02796352 0.99944059
0.02471951 0.06031131 -0.00051200 0.30895913 0.95107377 -0.00171382
0.02144593 0.08232202 -0.00125721 0.17096564 -0.10301467 0.97987689
0.01754052 0.07059844 -0.00138636 0.04297034 -0.04685510 0.99797703
0.03381657 0.08653322 -0.00071953 0.97139390 -0.23747207 -0.00095727
0.03581351 0.09842406 -0.00090533 0.07231503 -0.08824828 0.99347007
0.03785375 0.09810014 -0.00056438 0.30479763 0.95241556 0.00173530
0.02139435 0.08471775 -0.00018093 0.92568473 -0.37829561 0.00046324
0.02699214 0.10162984 0.00046580 -0.30942443 -0.95092347 0.00103958
0.03043700 0.10051371 0.00043563 -0.30996331 -0.95074809 -0.00090200
0.01934223 0.07971632 0.00069865 0.93499605 -0.35168287 -0.04584249
0.02481684 0.09109413 -0.00106189 -0.31434384 0.10421972 -0.94357098
0.01926695 0.07953087 0.00014912 0.92543073 -0.37891660 0.00042899
0.02066444 0.08294599 0.00089462 0.87622979 -0.33243414 -0.34886803
0.03088026 0.10037211 -0.00030617 0.30636592 0.95191351 -0.00076336
0.01842528 0.06235614 -0.00072001 0.30827232 0.95129018 -0.00389343
0.03320547 0.09961617 -0.00114569 0.31075515 0.95048608 -0.00272804
0.02127722 0.06143133 0.00104903 -0.30927308 -0.95097325 -0.00018780
0.02849787 0.06476063 -0.00140335 0.83589043 -0.13179304 -0.53283936
0.03355937 0.08861959 0.00106043 0.25847994 0.06199562 0.96402524
0.01562365 0.06793165 -0.00143166 0.13209906 -0.12765272 0.98298251
0.02489960 0.09327111 -0.00053326 0.92211021 -0.37186278 0.10691511
0.03110056 0.10029875 -0.00068883 -0.33305678 -0.94136716 0.05386147
0.02167292 0.06131088 -0.00091286 0.31250228 0.94991535 -0.00177558
0.03697585 0.09839265 0.00002686 0.26110254 0.96529908 -0.00481105
0.02865054 0.08629836 -0.00115137 -0.01097687 -0.02783793 0.99955218
0.02814357 0.06327852 -0.00038197 0.97153579 -0.23689153 0.00078115
0.03415729 0.09930715 0.00044365 -0.30737817 -0.95155875 0.00739003
0.02232093 0.08697281 -0.00060476 0.92488051 -0.38025417 0.00167694
0.02537027 0.07696109 -0.00133348 -0.00013400 0.00505780 0.99998720
0.02641727 0.09698836 0.00079554 0.90681755 -0.39251057 -0.15367948
0.01719657 0.06450567 0.00147707 -0.00525832 -0.10663110 0.99428475
0.03245227 0.09986025 0.00072576 0.31538650 0.94895923 -0.00278218
0.01544840 0.06332125 0.00056898 0.31191362 0.95010847 -0.00194785
0.02710829 0.08277776 -0.00127853 -0.01210795 -0.02716882 0.99955753
0.03886818 0.09777110 0.00096664 -0.31031271 -0.95063433 -0.00062772
0.03220505 0.08644276 0.00108822 0.01076914 0.00186171 0.99994028
0.02329849 0.08032600 -0.00131878 0.01164435 -0.01081305 0.99987374
0.01305311 0.06438528 0.00002996 0.95458695 0.28444533 0.08862623
0.01403972 0.06678607 0.00059418 0.92608505 -0.37731440 -0.00057768
0.02387641 0.09015695 0.00107745 0.86699658 -0.28400917 -0.40945784
0.03159309 0.10014170 -0.00107049 0.30980378 0.95080044 0.00036708
0.03239146 0.08609182 -0.00109584 -0.17128519 0.02999492 0.98476479
0.01888427 0.07860465 -0.00048134 0.92449701 -0.38118829 -0.00087283
0.01845468 0.07756323 -0.00096890 0.87287779 -0.43298303 0.22496679
0.03678924 0.09844750 -0.00070318 -0.35557184 -0.93164362 -0.07489215
0.03192806 0.09392207 0.00098456 0.00518899 0.01433788 0.99988374
0.02723870 0.09818010 0.00094711 -0.51978127 0.38495287 0.76265243
0.02785491 0.09391252 0.00100975 0.00454565 0.01315721 0.99990311
0.01489076 0.06886933 0.00130336 0.88320153 -0.43847263 -0.16642358
0.01397118 0.06660536 -0.00004359 0.92578998 -0.37803821 0.00014939
0.01384459 0.06630696 0.00121098 0.90119123 -0.37799947 -0.21206312
0.01723840 0.06274801 0.00007946 -0.30823714 -0.95130919 0.00082706
0.02121137 0.06145133 -0.00082108 0.30744419 0.95156550 -0.00108594
0.01470512 0.06841140 0.00098455 0.91776983 -0.39459977 -0.04460456
0.02123749 0.08433954 -0.00117880 -0.86106801 0.34073222 -0.37744328
0.02376099 0.09049892 0.00013628 0.92533129 -0.37915959 -0.00011608
0.02811398 0.06318355 -0.00046247 0.97128914 -0.23790200 0.00019037
0.02254020 0.06101773 -0.00015647 -0.30818478 -0.95131562 -0.00455413
0.02557518 0.06793443 -0.00138639 -0.00495584 -0.01397074 0.99989012
0.03555926 0.09781757 0.00091255 0.05749653 0.02284786 0.99808423
0.02718716 0.07289384 -0.00130774 -0.00936799 -0.00064045 0.99995591
0.01727018 0.06273091 0.00067577 -0.30621657 -0.95195561 0.00345297
0.03331624 0.09957793 0.00008791 -0.31049248 -0.95057518 -0.00111600
0.03404040 0.09358881 0.00098255 -0.01636830 -0.01254319 -0.99978735
0.02481035 0.06028184 -0.00001192 -0.30785959 -0.95142427 -0.00378538
0.02405723 0.07360809 0.00128765 0.00888593 0.02873398 0.99954760
0.02526249 0.09417375 0.00053756 0.89457540 -0.41760062 -0.15919978
0.01607420 0.07174701 0.00070691 0.92441345 -0.38138937 -0.00138809
0.03025696 0.10056848 -0.00007745 -0.30837370 -0.95126415 0.00147674
0.03357197 0.09256874 -0.00100307 -0.00408417 -0.01407295 0.99989263
0.03268543 0.09344386 -0.00099253 -0.00448521 -0.01474277 0.99988126
0.01744602 0.06305022 -0.00149854 0.30768990 0.57229559 0.76013465
0.03608663 0.09867833 0.00022664 0.30833331 0.95124831 -0.00756472
0.03062286 0.07343208 0.00027204 0.97103446 -0.23892914 0.00222455
0.03081848 0.09950087 -0.00091018 -0.04045072 -0.05431842 0.99770399
0.02640134 0.08265011 0.00103932 0.00378105 -0.00001306 0.99999285
0.02366336 0.07863573 0.00114385 -0.02089352 -0.02783603 -0.99939412
0.01667182 0.07320448 -0.00100819 0.87926594 -0.39516773 0.26595841
0.01963038 0.06196648 0.00052744 0.31111605 0.95037185 -0.00039860
0.01781436 0.07598731 -0.00014149 0.92460220 -0.38093309 0.00086530
0.03018221 0.09331270 -0.00100228 -0.00488389 -0.01369214 0.99989433
0.03259831 0.09525372 -0.00096588 -0.00550411 -0.01491518 0.99987361
0.01383724 0.06629335 -0.00072064 0.92815411 -0.36969119 0.04310893
0.01573524 0.06323415 0.00039640 -0.31193904 -0.95010148 0.00110032
0.02712482 0.07721356 0.00115218 -0.00063576 0.03495113 0.99938882
0.02555913 0.06004026 -0.00098051 0.30983263 0.95078136 0.00430791
0.03540284 0.09889454 -0.00055756 -0.31112473 -0.95036718 -0.00190589
0.03295820 0.09968709 -0.00087324 -0.30859192 -0.95119298 0.00171525
0.03199401 0.10000864 -0.00012864 -0.30477136 -0.95242043 0.00312150
0.03153649 0.09474268 -0.00097365 -0.00414085 -0.01379583 0.99989626
0.02882472 0.10103952 -0.00099401 0.34330306 0.93891564 0.02409193
0.03052243 0.07302761 -0.00035497 0.97123597 -0.23811459 0.00146410
0.02025568 0.06176357 -0.00079088 0.31262305 0.94986550 -0.00472942
0.03226595 0.08378839 -0.00115831 0.26090218 0.06851000 -0.96293117
0.02085589 0.06157001 0.00027452 0.30801318 0.95137390 0.00394740
0.03141196 0.07668011 0.00083349 0.96911564 -0.24591486 0.01845948
0.03413108 0.09866158 -0.00090745 -0.23300084 0.15167562 -0.96057541
0.02297572 0.08340548 -0.00125252 0.01079329 -0.02664836 0.99958660
0.03214558 0.09995496 0.00034495 0.31177620 0.95015519 0.00084321
0.02910164 0.09937434 -0.00092403 -0.00506048 -0.01522911 0.99987122
0.03292307 0.08286839 0.00096839 0.97515655 -0.17366369 0.13751592
0.01959412 0.06198200 -0.00096472 0.30803548 0.95136441 0.00446113
0.01576299 0.06766900 0.00143784 -0.09070721 0.09484928 0.99135050
0.03605751 0.09571469 -0.00048865 0.96923596 -0.24456890 -0.02770735
0.02517545 0.09394906 -0.00088118 0.89858152 -0.25760413 0.35523424
0.02102428 0.06151436 0.00048277 0.31191260 0.95010987 0.00132706
0.02188241 0.07412503 -0.00131429 0.00118308 -0.00117596 0.99999861
0.03519448 0.09217639 -0.00014734 0.97078401 -0.23994718 -0.00194004
0.02789844 0.10134260 -0.00079593 -0.34178633 -0.93923615 -0.03189923
0.02120015 0.08424418 -0.00017795 0.92456698 -0.38101893 -0.00069116
0.02792385 0.06763225 0.00138044 0.10480965 -0.01655452 0.99435451
0.03486741 0.09085425 -0.00029579 0.97112029 -0.23857095 0.00304670
0.03437761 0.08883887 0.00001791 0.97118298 -0.23833481 -0.00035980
0.02999726 0.07086824 0.00114080 0.93509478 -0.18289757 0.30355598
0.01473599 0.06848983 0.00054760 0.92572822 -0.37817998 -0.00267645
0.03089447 0.10036523 -0.00127618 0.33507513 0.94143031 0.03786332
0.02232675 0.08701489 -0.00039619 0.92446408 -0.38126903 0.00029476
0.02996497 0.10066624 0.00134275 -0.34427680 -0.93885148 -0.00560250
0.03385546 0.09939354 0.00095813 0.32850470 0.94434638 0.01716318
0.03259927 0.09305155 0.00099918 0.00397345 0.01443431 0.99988792
0.02040239 0.06515925 -0.00144950 -0.00456827 -0.01472938 0.99988108
0.02449946 0.06038435 0.00030323 0.31140300 0.95027253 -0.00320712
0.01917187 0.07893316 -0.00127634 -0.58580027 0.19240902 -0.78728445
0.02836285 0.06418860 0.00043611 0.97118427 -0.23832671 -0.00122208
0.03067469 0.07980480 -0.00126033 -0.12088540 0.02541255 0.99234113
0.01869426 0.06226469 0.00004722 -0.31131072 -0.95030742 0.00120088
0.03081296 0.07423068 -0.00123893 0.80617445 -0.22160226 -0.54861207
0.01379207 0.06619387 -0.00078841 0.92393327 -0.38052757 0.03932023
0.02537778 0.06879947 -0.00137241 -0.00454896 -0.01337484 0.99990021
0.02268540 0.07799420 0.00117881 0.02183154 0.02592423 0.99942549
0.02368187 0.07231330 0.00133095 0.00614610 0.02491533 0.99967067
0.01824974 0.06916163 0.00140825 0.00460349 0.01339679 0.99989966
0.02035935 0.08221197 -0.00121585 0.89853880 -0.26997416 0.34603754
0.03099710 0.07499802 -0.00004749 0.97129972 -0.23785698 0.00095291
0.02307088 0.08881642 0.00043959 0.92552229 -0.37869076 -0.00133956
0.02147919 0.08493942 0.00034461 0.92585747 -0.37786290 0.00275353
0.01553928 0.07043116 0.00071058 0.92432062 -0.38161680 -0.00013139
0.03610326 0.09867311 0.00074394 -0.26372176 -0.96352058 -0.04559529
0.02003355 0.08140760 0.00097127 0.93089283 -0.35090400 -0.10151315
0.02649802 0.06450758 -0.00142898 -0.01938231 -0.00390405 0.99980452
0.02739622 0.06022336 0.00135202 0.68963163 -0.30638464 0.65615293
0.03102324 0.08461019 0.00107908 0.00942286 -0.00281852 -0.99995163
