ply
format ascii 1.0
element vertex 1387
property float x
property float y
property float z
end_header
-0.03738397 0.01486459 0.00655482
-0.03498114 0.00316475 -0.00210159
0.04082494 0.00089678 0.00599862
-0.02920153 -0.01141475 0.00135651
-0.02211954 0.02071180 -0.00426346
0.03666963 0.02772614 -0.00447171
-0.02687740 -0.02097966 -0.00376586
0.02069813 0.03208255 0.00123108
-0.02144308 0.02267603 -0.00278426
0.02313391 -0.02395502 0.00154459
-0.03631414 0.00861469 0.00394935
0.02844526 -0.00562269 -0.00631116
-0.00057369 0.03511053 -0.00294548
0.01275731 0.03211234 -0.00633328
-0.02136504 -0.03969461 0.00424451
0.01476472 0.02434294 -0.00430080
-0.03366475 0.03408801 0.00255321
0.03545342 -0.00421808 0.00260751
-0.02383232 -0.02039333 -0.00637250
0.01381746 0.03632185 0.00531882
-0.02100247 0.03856981 0.00320799
0.02392712 -0.02335198 0.00530046
0.01386564 -0.02980569 0.00383415
-0.00154345 -0.04380503 -0.00408756
0.00638074 -0.04458086 0.00057257
0.00191073 -0.04099270 0.00594450
0.03424626 0.00903708 0.00606245
-0.03625034 -0.01545742 -0.00356659
-0.02578520 0.03863207 -0.00541720
-0.03237029 0.01786149 -0.00308649
-0.01734411 -0.04374167 -0.00578624
-0.03643498 0.01237815 -0.00678521
0.02305358 0.03038755 -0.00060934
0.03011853 0.01598051 0.00471378
-0.00308350 -0.04645102 -0.00560684
0.03148189 -0.01163485 -0.00186258
-0.03438157 0.00433986 0.00692891
-0.01060913 0.03243221 -0.00340828
0.02270484 0.02490931 0.00596067
-0.00329391 0.03381207 0.00004008
0.01971836 -0.01990259 -0.00026467
0.00902845 0.04697720 -0.00424397
0.01329412 0.02616152 -0.00518407
-0.00939175 0.03625961 0.00564441
0.03330254 0.01895347 -0.00537039
0.03819327 0.00530178 -0.00339255
-0.01792691 0.03650311 0.00051513
0.03351136 -0.01323530 0.00425887
-0.02426766 -0.03401548 0.00095775
-0.02173461 -0.02808622 0.00555298
0.02432828 -0.01918770 0.00302936
-0.03958990 0.02522629 0.00463023
-0.01738873 0.02220695 0.00577026
0.01904312 0.04050271 -0.00173422
0.02603547 0.01199743 -0.00454805
0.01822418 -0.03533392 0.00398468
-0.02393334 0.03398199 0.00659810
-0.02414552 -0.03466962 0.00579037
0.02493479 0.02172356 -0.00542881
0.01148409 0.03345606 0.00681450
0.00502005 -0.04626277 0.00324254
0.01717182 -0.03176181 -0.00041000
0.04617127 -0.00877028 -0.00092970
0.02561812 0.03535445 0.00302090
0.02493690 0.03820837 0.00518238
0.02909669 0.02209061 -0.00110166
0.04603058 0.01039208 -0.00352034
-0.01194559 0.02769045 0.00488278
0.00510023 -0.04548790 -0.00031970
-0.04514569 -0.01409552 0.00088011
-0.01903025 -0.02159332 0.00212885
-0.03703560 -0.03010392 0.00445175
-0.03649560 0.02679294 0.00414047
-0.00360122 -0.03429486 -0.00429137
0.02779300 0.03662098 -0.00280039
0.02404965 -0.01904320 0.00021371
-0.03452021 -0.01325302 -0.00258805
-0.03130358 0.01177998 0.00642755
-0.03427389 0.03137071 -0.00515850
-0.04062804 -0.02465344 -0.00326582
-0.04262751 -0.01927055 0.00435999
0.02816271 -0.03558472 0.00404362
-0.00859133 -0.03588419 0.00018875
-0.01695401 0.03257072 -0.00405801
-0.03455598 0.00587261 -0.00345405
-0.02994648 0.01317538 0.00596188
-0.02413911 -0.01501479 0.00267012
-0.04030419 0.01009214 0.00294033
0.00664611 -0.02773161 0.00044484
-0.01441790 0.03029921 0.00443500
0.04338413 0.01965195 -0.00491579
0.02545423 0.01345267 0.00428320
0.01425968 -0.03557292 -0.00222610
-0.01786010 -0.03422243 -0.00095882
0.03748051 0.01973125 0.00135946
-0.01639380 -0.03291169 -0.00630086
-0.00636067 0.02837185 0.00125441
0.04127252 -0.02181167 0.00554566
0.03502481 0.02998472 0.00044264
0.02766582 0.03280754 -0.00467132
0.01090810 -0.03659556 0.00454204
0.01951753 -0.03202596 -0.00223135
0.03105143 -0.00496658 -0.00088676
-0.03349694 -0.03331308 0.00338297
-0.03654430 0.02915440 -0.00199074
-0.02863618 0.00461268 -0.00264809
-0.01333678 0.03796223 0.00359096
0.02805778 -0.03537499 0.00399894
-0.00467553 -0.03440465 0.00334870
-0.00969789 -0.04425741 -0.00178580
-0.00242629 0.03855761 0.00054419
0.02652435 -0.01467063 -0.00367301
-0.01180703 0.03061615 -0.00629825
-0.02381094 0.03526993 0.00027974
-0.02076084 0.02108201 0.00093595
0.04057235 -0.02186559 0.00082921
-0.02449487 -0.01985615 -0.00550523
0.03046256 0.03176796 0.00660463
-0.02243156 -0.03954439 0.00255212
0.01601089 -0.02421133 -0.00234133
-0.02374683 -0.01594983 -0.00236032
0.03874461 -0.01592441 0.00001404
-0.00297281 -0.04385659 0.00429455
-0.02150351 0.03808656 -0.00690684
0.02730803 -0.03866466 -0.00588361
0.01695389 -0.03620961 0.00448116
0.03306729 -0.01396888 0.00164372
-0.02934559 -0.01236108 -0.00556252
0.03267438 -0.01814713 0.00193508
-0.03229367 -0.03034789 -0.00345840
0.01193300 -0.04243085 -0.00290000
-0.00567901 -0.04448891 -0.00133063
-0.03305083 -0.00843414 0.00432286
0.02448868 0.03590525 -0.00623668
-0.03607495 -0.00515954 0.00089627
-0.01067682 -0.03640662 -0.00664836
-0.00753842 -0.03492016 -0.00035679
0.03037918 0.03676058 -0.00394020
0.02847800 -0.00482778 -0.00664768
0.00838567 0.03548179 -0.00314144
-0.02569640 -0.03940199 0.00092834
0.03995300 -0.00864648 -0.00223193
-0.03811689 -0.02116406 0.00451110
-0.00510822 0.03386518 -0.00436010
-0.00562454 -0.03905311 -0.00327511
-0.03081412 0.02358230 -0.00117799
-0.03702625 0.00933053 -0.00417383
-0.03204349 -0.02375571 -0.00565612
0.04234062 0.01172250 -0.00650696
-0.02011098 -0.02838648 0.00519056
-0.02972826 0.01312172 -0.00371162
0.02079671 0.02354328 -0.00369223
-0.01679287 -0.02439051 0.00382611
-0.01688409 -0.03422488 -0.00510634
0.04782672 -0.00389069 0.00568606
0.03071751 -0.01079486 -0.00668170
-0.03043790 0.01668755 0.00144369
-0.03689433 -0.02819624 -0.00373371
0.02859270 -0.00163281 -0.00075888
0.01327689 0.02677370 -0.00187150
-0.01392903 0.03878729 0.00027808
0.04254461 0.02217736 -0.00184874
-0.03141841 -0.01403250 0.00030933
0.04292055 0.01715925 -0.00020752
0.03391167 0.00977768 0.00402230
0.01235026 0.03386156 0.00090312
0.03400915 -0.01667258 0.00073026
-0.03831088 0.01181835 -0.00475278
-0.01662031 0.02374111 -0.00201416
-0.01967891 -0.02439202 -0.00110878
0.01247119 0.03936852 0.00229020
-0.02360239 -0.02097775 -0.00685214
-0.02395735 -0.02485433 0.00671719
0.02065890 -0.02920285 -0.00440855
0.00326992 -0.04295506 0.00399297
-0.04361428 0.01936274 -0.00224677
0.02614526 -0.03791587 -0.00229772
0.01591657 -0.04080944 0.00611156
0.02954799 -0.00948384 0.00208893
0.01297388 0.04420929 -0.00678337
-0.01044246 0.03364424 0.00245528
-0.00215294 -0.04789545 0.00170414
0.01871931 0.02383055 -0.00021665
0.02326934 -0.03858274 -0.00203220
-0.02101383 0.02806519 -0.00306372
0.02166577 0.03867381 -0.00102784
0.03069334 0.02930070 -0.00668575
0.02269943 -0.02437142 -0.00125917
-0.02009795 -0.02157212 0.00412338
0.03886714 0.01155957 0.00521396
-0.03310257 -0.00599910 0.00431248
-0.00782804 -0.03632266 0.00561804
0.03174076 -0.01676611 0.00183403
-0.01472655 0.03413236 0.00012930
-0.03941994 -0.01669564 0.00459459
-0.00642944 -0.03691488 -0.00213566
0.01881544 0.02307025 -0.00511161
-0.04425640 0.00329251 0.00473584
0.02919831 0.02856800 -0.00194053
0.02510258 -0.02507256 0.00665213
-0.03043742 0.02858446 -0.00420596
0.02933420 0.02325622 0.00308873
-0.00841574 -0.03814688 0.00489531
0.03869410 -0.00017671 -0.00512626
-0.00770522 0.04587085 -0.00472415
-0.03773883 -0.00376547 -0.00112356
0.02579019 -0.01455083 0.00261535
0.01152779 0.02745837 -0.00074340
-0.02546228 0.03149122 -0.00241570
0.00662161 0.02873238 -0.00688253
-0.02460511 0.01823779 -0.00472126
0.01279726 0.04280465 -0.00041936
0.03141791 -0.01658873 0.00418169
-0.03760991 -0.00976747 -0.00632154
0.00087788 -0.04135322 0.00372493
0.03825966 -0.02206195 0.00604971
-0.00504934 -0.03983514 0.00085398
0.03301012 -0.00787251 0.00568719
-0.02450552 -0.02452355 -0.00087515
-0.04133978 -0.01566077 -0.00170205
-0.00606160 -0.04154680 -0.00444396
0.01550781 0.02827534 0.00155220
-0.00113601 0.03812376 0.00616552
-0.03046625 -0.00615009 0.00440985
0.02837815 -0.00777952 -0.00475373
0.02806118 0.00503327 -0.00257202
0.00959478 -0.02726897 0.00218779
0.03224733 -0.01570833 0.00441787
-0.03526384 -0.02365162 -0.00612523
-0.01605386 -0.04358257 0.00602660
-0.03837043 0.00446243 0.00065921
-0.01904411 0.02254992 0.00311511
-0.01410597 -0.03291572 0.00008068
0.03389648 -0.01065089 -0.00070815
-0.00381783 -0.03688224 -0.00360516
0.01629854 0.04205270 0.00595004
0.02710270 0.03253806 0.00694993
0.03221542 -0.00163483 -0.00290666
-0.04387948 -0.00129016 -0.00311148
0.03639175 0.00546284 0.00266016
0.01391336 0.02576777 -0.00166484
-0.01911170 0.02659101 0.00668294
0.02285681 -0.03563388 -0.00540092
-0.00428282 0.03881237 0.00453036
-0.02246281 -0.02320608 -0.00548254
0.01528228 0.03857326 0.00317067
-0.03111357 -0.01331710 -0.00197538
0.00206184 0.03367626 -0.00170701
-0.02186765 -0.02634615 0.00111691
0.03575747 0.00676914 0.00431895
0.02774369 0.02992068 -0.00421145
-0.03174546 0.01531699 0.00172448
-0.04102688 -0.00317229 0.00593678
-0.02073035 0.02832454 -0.00036609
-0.03897697 -0.00991657 0.00085069
-0.03310409 -0.01408265 -0.00529067
-0.02855944 0.03252382 -0.00653472
0.00516458 0.03161031 -0.00456910
0.02408741 0.03382013 -0.00468161
0.01474011 -0.02602594 0.00684246
-0.02879919 -0.03054831 -0.00087521
-0.00221975 0.03337873 -0.00292022
0.02924657 -0.02453754 -0.00058060
0.02039253 -0.01985840 0.00119335
0.03457750 0.01241874 -0.00154583
-0.03296702 -0.03091932 0.00346320
0.03642853 0.02534680 -0.00310319
-0.04324010 0.00974255 0.00279517
0.00478186 0.04633084 0.00559624
-0.03493497 0.02021078 -0.00472888
-0.04254258 0.01957582 0.00237806
0.02657938 0.02885824 -0.00422717
0.01418874 0.03676782 -0.00190933
0.01313630 0.02935457 0.00265955
-0.03458830 0.01653523 -0.00183962
-0.03054812 -0.02819646 -0.00540675
-0.03124422 -0.01744840 -0.00605700
-0.03010267 -0.02845168 -0.00560523
-0.03382075 -0.02418131 0.00405970
-0.01667301 0.03007997 -0.00128858
0.00732259 0.04434047 -0.00470512
0.03711947 0.00127711 -0.00390643
-0.03259964 0.00309972 0.00429172
0.00860539 -0.02707832 -0.00380249
-0.02739449 -0.03123580 -0.00074944
0.00816574 -0.03210306 -0.00344177
-0.03116211 0.01019516 -0.00649699
0.01223094 -0.04395055 -0.00496983
-0.01784718 0.02536770 -0.00676137
0.00049880 0.03256522 0.00689090
-0.01323107 -0.03136459 -0.00490706
-0.02398600 0.03800067 0.00248872
0.00002749 -0.02975156 0.00472603
0.02345253 0.03518322 -0.00336790
0.00515735 -0.04492344 0.00248335
-0.03096124 -0.00535703 0.00057645
-0.01387091 0.03682468 -0.00163791
0.01769094 -0.03769712 0.00433890
0.03479420 0.00122736 -0.00399999
-0.00960362 0.04560162 0.00462319
-0.02384841 0.01786800 -0.00167264
0.04581728 -0.01312835 0.00528161
-0.00496676 0.04718169 0.00658159
-0.00919221 -0.03473677 -0.00214454
-0.03277564 0.01311425 -0.00657135
0.03150872 0.00153829 -0.00010612
0.04301638 0.01508919 -0.00111042
0.02789626 -0.00678269 0.00455168
-0.00634850 -0.03339230 0.00082844
0.02567321 0.01603734 0.00201005
0.01657429 -0.03102465 0.00627808
-0.00226777 0.03602918 -0.00169343
0.03500086 -0.00115980 0.00663540
0.01077862 -0.03995938 -0.00517241
-0.03234414 0.02224552 0.00459125
0.02783068 -0.03305720 -0.00193627
-0.02715194 -0.02964639 0.00249959
0.01023074 0.02887000 -0.00620068
-0.00994107 0.03182905 -0.00345584
0.02701825 -0.02662143 0.00266528
0.03539549 -0.02931657 0.00614894
-0.02192863 0.03234460 0.00599956
0.00810504 -0.04437014 0.00325518
0.02462016 0.02344097 -0.00612229
0.04336199 0.01918536 -0.00690106
-0.01436033 0.02692757 0.00111807
-0.04013456 -0.00619633 -0.00362210
0.00248194 -0.03479949 -0.00001412
0.03634186 0.00100950 0.00496315
-0.01623694 0.03515109 -0.00330036
-0.02088864 -0.03288615 0.00158792
-0.03670261 0.01516140 -0.00186397
0.03553875 -0.02852455 -0.00141767
-0.03986144 -0.02300553 0.00520042
0.03542312 0.02299272 -0.00240321
0.04507411 -0.01010342 0.00602850
0.03421856 -0.01827099 0.00590555
0.01349697 -0.03933850 -0.00027943
-0.02963553 -0.00057095 0.00006948
-0.01308268 -0.02999439 -0.00131723
-0.02504600 -0.01295241 -0.00490083
0.00868616 0.04025260 0.00310845
0.04125294 0.01799474 0.00016039
-0.01302252 0.03248526 -0.00420020
0.01565680 0.03343190 0.00043180
0.04400404 0.01532812 0.00162379
0.00687142 0.04680998 0.00578051
-0.02767360 0.02028108 0.00528196
0.02746994 -0.01687820 0.00431993
0.00600367 -0.02831556 -0.00501262
-0.03436141 0.01001797 0.00205366
0.01102854 -0.04064905 -0.00119166
-0.00911039 -0.02868976 -0.00060325
-0.01451142 0.02605507 -0.00361269
-0.02643153 0.03248276 0.00377461
0.02223446 0.03876776 -0.00294854
0.02752603 -0.03857446 0.00684171
-0.01476123 -0.02784849 -0.00563347
0.03905035 -0.00426603 0.00197732
0.02469445 -0.01380922 -0.00349975
0.00174801 -0.03738920 -0.00460036
-0.00145309 0.02935008 0.00583177
0.04445043 -0.01086150 -0.00291578
0.00921447 0.03284034 -0.00500570
0.00247320 -0.03439625 -0.00640840
-0.00016982 0.04676274 -0.00481936
0.00975599 0.02799133 -0.00410160
0.04299654 0.00296213 -0.00395304
0.04309977 -0.01857061 0.00638818
-0.02432661 0.03575899 0.00648260
-0.01390495 0.03518198 0.00604704
0.00505564 -0.02800829 0.00258408
-0.02707216 -0.03088803 -0.00524506
-0.03130415 -0.01469578 -0.00245580
0.02448127 -0.03066691 -0.00461281
0.02148887 -0.03568128 -0.00623230
-0.02626351 -0.02274633 0.00322179
-0.01150427 0.03680087 0.00594532
-0.00057810 0.03652518 -0.00509118
0.01168267 0.02999625 -0.00011373
0.03140520 -0.00692812 -0.00660351
-0.00355232 0.03187431 0.00147580
-0.00711917 -0.04710979 -0.00570865
0.03476790 0.01702353 0.00018446
-0.01447171 0.03464422 -0.00604323
0.03736931 0.00540455 0.00331183
0.00538961 -0.04045732 0.00626521
-0.03677626 -0.01398820 0.00075221
0.02907638 0.03045956 -0.00306459
-0.00994998 0.03304071 -0.00159997
-0.00289928 0.03948000 -0.00605802
0.04517703 -0.01030834 0.00444477
-0.02446942 -0.01887200 0.00275011
0.04569701 -0.01229391 -0.00629409
-0.00626454 0.03549825 -0.00682392
0.00742337 -0.02842276 -0.00664941
-0.02298325 -0.02616324 0.00657672
-0.04487269 -0.00977812 -0.00443530
0.01595768 0.02895981 0.00076718
-0.02352727 0.02342941 -0.00319820
-0.01713847 -0.03718327 0.00679851
-0.03966118 0.02419976 0.00048699
-0.00816891 -0.02929859 0.00110036
-0.03110652 0.03436632 -0.00517600
0.01327828 0.02972325 0.00612097
0.01258203 -0.03703488 -0.00267924
0.01947444 -0.02390551 0.00700286
0.02830508 -0.02552932 -0.00599258
-0.01686072 -0.03242735 -0.00487086
-0.03286176 0.00745409 0.00701102
-0.04066769 0.02006656 0.00412831
-0.02467006 -0.03261599 -0.00137348
-0.01092500 0.02722128 -0.00329818
-0.00694610 -0.03947661 0.00496582
-0.02590891 -0.02397148 0.00332836
-0.02332667 -0.03514464 0.00303185
0.01053249 -0.03401905 -0.00004971
0.03554915 0.00709240 0.00569098
-0.02975083 -0.01564335 -0.00287934
-0.03993854 0.00419145 0.00259527
-0.01434065 -0.03756409 -0.00477509
0.01322705 -0.02970517 0.00082243
-0.01560270 0.02546717 0.00512629
-0.01971328 -0.03257297 -0.00555755
-0.03230249 0.01170818 -0.00111872
-0.03159577 0.01586065 -0.00205101
0.00026581 -0.03906822 -0.00266050
0.02615266 0.01574208 0.00543458
0.01426308 -0.02895421 -0.00654675
-0.00225397 -0.04782925 -0.00551752
-0.00013267 0.04099245 -0.00334133
0.02611172 -0.03136843 -0.00484098
0.00746077 -0.04424439 0.00501297
-0.03509558 0.01794091 0.00452412
-0.01356630 -0.02907490 -0.00303033
-0.03775626 0.02200919 0.00314473
-0.00372474 -0.03470604 -0.00224449
-0.04023576 0.02507878 0.00480513
0.02087447 -0.02835874 -0.00532894
0.04413379 -0.01017982 -0.00441967
-0.03279644 -0.00279577 -0.00069912
0.02544646 0.04015163 0.00530322
0.02238871 0.02011907 0.00201484
0.00032230 -0.04053692 -0.00280180
-0.01811204 -0.02555636 0.00535570
0.01396006 0.04060024 -0.00093104
0.02547965 0.01854877 -0.00659780
0.03886782 -0.01216560 -0.00682737
-0.02670553 -0.01036396 0.00206543
-0.00332886 -0.03950854 0.00674452
0.02838479 0.01994058 0.00667098
-0.01791341 0.02657709 0.00296011
0.00211177 -0.03801743 0.00208820
-0.03257111 0.01093672 -0.00540295
-0.02814733 0.02929992 -0.00651617
0.00778833 -0.04206128 -0.00673740
-0.02310445 0.02830510 0.00489190
0.02756672 -0.03763948 -0.00558899
0.00298510 0.04123507 -0.00676200
0.00215980 0.04583911 0.00367893
0.04106745 0.00701268 -0.00287855
-0.03159520 0.01123433 0.00630145
-0.02740190 -0.02767278 -0.00657287
0.01592035 -0.04173128 0.00651126
-0.01655223 0.03340957 -0.00411811
0.00431112 0.03050694 -0.00328663
0.02765266 0.01567343 -0.00664052
-0.04494202 -0.00328763 -0.00658785
-0.02188628 -0.03898128 0.00083296
0.03399776 -0.00417368 -0.00557167
0.04265951 -0.00229346 0.00058630
-0.01761172 -0.03230861 -0.00130912
-0.04024429 0.02383384 0.00067313
-0.03155130 -0.03150324 -0.00577533
0.03151897 0.01522917 -0.00632998
0.02896301 0.00889293 0.00061593
0.03699472 0.01376173 -0.00302534
-0.03925342 0.01790199 -0.00326761
-0.03462799 0.00673380 -0.00285276
-0.02455975 0.01589788 -0.00398881
0.02130293 -0.02475446 0.00082330
-0.02548723 0.02968527 -0.00512598
0.00338010 -0.03502931 0.00632255
0.00836566 -0.03692300 0.00043202
-0.00536677 0.04271977 -0.00356341
0.03814950 0.00705668 0.00619011
-0.00498016 0.04709522 -0.00584987
-0.04651262 0.00538564 0.00680017
-0.01978624 -0.03368852 0.00505585
0.03001564 0.01096920 -0.00561611
0.03223202 -0.03551341 0.00036572
-0.04656130 0.00842613 0.00220434
0.01803678 -0.03574076 0.00379256
0.03138918 0.00426598 -0.00552757
0.03275802 -0.02206730 0.00386440
-0.00933132 -0.02695125 -0.00199280
0.01820297 -0.02434838 0.00344364
-0.01959922 0.04227810 0.00413831
0.04354694 -0.01698449 0.00491232
0.01045939 -0.03528726 0.00280915
0.00836375 -0.02676429 -0.00139615
0.03129733 0.01901525 0.00394501
-0.02763477 -0.03815535 0.00317262
0.03012408 0.02921699 0.00216668
-0.02435556 -0.02386998 -0.00502989
-0.03661780 0.01967757 -0.00383704
-0.03463923 -0.02926410 -0.00702042
-0.02937110 0.02768894 0.00530499
-0.04039863 0.02445324 -0.00447539
0.02548425 -0.03846419 -0.00111547
0.02863556 -0.03679869 -0.00253793
0.00696360 0.03828991 0.00261152
0.02053342 0.02746793 0.00698861
-0.01088022 0.02751649 -0.00491353
-0.03753084 -0.00644567 -0.00574250
0.02981994 0.03371442 0.00478934
-0.02977490 0.01555173 0.00047494
0.00395979 -0.04520106 0.00640657
0.01166186 0.03607831 0.00650909
-0.00699096 0.02720916 0.00445873
-0.01927522 -0.03295318 0.00537874
-0.02134482 -0.02715553 -0.00093054
-0.00682617 -0.03868232 0.00455194
-0.03897460 -0.01412050 -0.00658673
-0.00822639 0.03682144 -0.00552960
-0.02928207 -0.00602290 -0.00070982
-0.02329123 -0.03301995 -0.00345348
0.03376661 -0.01912283 0.00365089
-0.01219559 0.04067102 -0.00381081
0.01789622 -0.04050674 0.00382168
0.03422360 0.01472586 -0.00258098
0.03302133 0.00396618 -0.00690483
0.02891538 0.02532627 0.00006914
0.04345726 0.00414818 0.00078359
0.02087678 0.02375163 0.00070657
0.02962953 0.01815638 -0.00185458
0.01124337 0.02680225 -0.00531099
-0.03925861 -0.01695696 -0.00656148
-0.00874741 0.04049083 -0.00582281
0.00862909 -0.04354319 0.00384348
0.00234917 -0.03759249 0.00483072
0.04607761 -0.01343959 -0.00416127
-0.00769874 -0.03592839 0.00518444
0.03069835 -0.01759826 0.00001502
-0.04135916 0.00595896 -0.00604967
0.04788962 -0.00148954 0.00685754
0.02431265 0.02663299 -0.00527109
0.02377151 0.01771662 0.00601878
0.03435978 -0.00122084 0.00412921
-0.02801080 -0.01941575 -0.00184468
-0.00819357 -0.02794725 0.00222244
0.02847558 -0.00538274 -0.00148622
-0.00177022 -0.03792979 0.00481808
-0.03952979 -0.00573320 -0.00008690
-0.04428306 -0.00964075 -0.00139747
0.00084146 0.04502064 -0.00355600
0.04227221 0.01567694 -0.00063837
0.01293297 -0.03213700 -0.00399452
0.01136713 0.03237267 -0.00123343
0.03562814 0.00902884 0.00533555
0.02328214 0.03264693 -0.00199123
0.00855684 0.03696101 -0.00623871
0.00083771 0.03821704 0.00551518
0.03052253 -0.02888202 -0.00216532
0.03397596 -0.01099024 0.00631806
-0.03630483 0.02959888 0.00467524
0.00828238 0.04166651 -0.00007322
-0.01968790 -0.02892013 -0.00592245
-0.02744505 -0.00670416 0.00309647
-0.03762714 -0.01161036 0.00076939
0.01098931 0.02745856 0.00486630
-0.02079178 -0.03376645 0.00610052
0.01630851 0.04406431 0.00510323
-0.03684323 0.01993169 0.00267302
-0.01472244 0.03132937 0.00605332
-0.03267940 0.00394495 -0.00404298
-0.00951291 -0.04332401 0.00463869
-0.01510399 0.02390737 -0.00700229
0.02426401 -0.03750538 0.00430533
-0.02761243 0.01451166 -0.00475279
0.01689142 0.02279556 0.00635480
-0.00932341 0.02689044 -0.00636783
-0.02094746 -0.03378544 -0.00641642
-0.01793999 0.03035529 0.00072868
-0.03594157 -0.01237397 -0.00661040
-0.01724724 0.03179030 -0.00398440
0.00527647 -0.03160911 -0.00004818
-0.03764817 -0.02900747 -0.00624020
-0.04395528 -0.01201059 0.00092040
-0.01021580 0.02906738 0.00256588
-0.02313590 -0.03365260 0.00157284
0.04619952 -0.00021234 0.00461506
0.03550312 0.01580789 -0.00323955
0.03178787 -0.01633125 -0.00252593
0.02467828 -0.03154171 0.00295213
-0.01743606 0.03351766 0.00086234
0.01186349 0.04361264 -0.00007846
0.03273737 -0.01479000 -0.00135815
-0.03463155 -0.00863739 0.00355149
-0.02163114 -0.02766878 -0.00548904
0.00162668 -0.03210280 -0.00500440
0.03662063 0.02677230 -0.00532289
-0.00076338 0.04735607 -0.00292531
0.02018065 0.03921216 -0.00470464
-0.01459731 -0.02678293 0.00486303
-0.03542822 0.02671924 -0.00143815
-0.01922901 -0.03878338 -0.00501020
0.02656480 0.01285925 -0.00539124
0.02542738 0.03508664 -0.00581815
-0.03639136 -0.00458884 0.00658950
0.00884353 0.04702164 -0.00374929
-0.00821593 -0.04716218 0.00037421
0.02238184 -0.02003376 0.00038371
-0.03668104 0.02240761 -0.00494420
-0.00380862 -0.04048217 0.00515750
0.03209656 0.02228224 -0.00224856
0.03514580 0.02368006 -0.00192901
-0.00577804 -0.02768238 -0.00270957
-0.03513823 -0.03221687 0.00147523
-0.04272385 -0.01369492 0.00445355
0.03188244 -0.01594789 -0.00226900
0.04282520 -0.00355801 -0.00377879
-0.03016085 0.00058432 0.00245759
-0.01308470 -0.03684220 0.00060607
-0.02936386 0.02299816 0.00042836
-0.01379282 -0.02557813 0.00030586
0.03167419 -0.00562717 0.00168610
-0.00263540 0.03471179 0.00680535
0.01849994 -0.04322310 -0.00027755
-0.04359784 -0.01236748 0.00196541
0.02561737 0.03166757 0.00005295
0.02447099 0.01618965 -0.00361737
0.03430736 -0.03073942 0.00232527
0.02614006 -0.03792252 0.00114609
0.02483360 0.01536875 -0.00667496
0.03049315 0.02954378 -0.00301108
0.04284853 0.01466262 0.00550436
-0.03640843 0.01465338 -0.00263236
-0.03581224 0.00588877 -0.00230230
0.01125052 0.04511967 0.00016615
0.00027194 0.04654835 -0.00455419
-0.04252165 -0.01071707 -0.00667390
0.00993620 -0.04519027 0.00319802
-0.00742733 0.04665723 0.00107637
-0.01190038 -0.03485494 -0.00662727
0.02912075 0.00147752 -0.00700575
0.04695221 0.00662923 -0.00077355
-0.03840231 0.00529237 0.00680009
0.00046982 0.04683451 -0.00107993
0.03472848 0.00880033 0.00067049
0.03003407 0.01317586 0.00264611
-0.03307164 0.03066813 -0.00332519
0.02788137 0.02864892 -0.00408881
-0.03887679 -0.01887628 0.00190266
0.00137038 0.04110796 0.00008750
-0.04039049 0.01426908 -0.00254100
-0.02612594 0.03055878 0.00337240
-0.03530222 0.01112875 -0.00206627
-0.04141760 -0.01327257 0.00643386
-0.00629721 -0.03535168 -0.00117981
0.03516517 -0.00038192 -0.00176538
-0.01849509 -0.03618362 -0.00398907
0.01893136 0.03330379 -0.00654833
-0.02709192 0.01475588 -0.00557334
-0.03021028 0.01621007 -0.00427892
-0.00333926 -0.04651953 0.00639810
0.01933861 -0.03581512 -0.00010228
0.04333046 -0.01553920 -0.00374672
0.03302111 0.02980558 0.00184712
0.00313617 -0.02906497 0.00021284
-0.00535803 0.04766462 0.00528400
0.00670637 0.02745540 0.00657301
0.02078121 -0.01965867 -0.00342009
-0.01033317 0.03005126 -0.00276905
0.03149883 0.02809318 0.00457332
-0.02617190 0.01079870 -0.00431503
-0.02315562 -0.03222711 -0.00125428
0.00490773 0.04314360 -0.00050023
0.04205997 0.00847004 -0.00368275
0.00535144 0.04547627 -0.00650375
-0.02434785 -0.01740915 -0.00653014
-0.03480257 0.00529381 -0.00633674
-0.00726139 -0.03813617 0.00336907
-0.03076773 -0.02068472 -0.00426399
-0.02998455 -0.00857635 0.00412795
-0.02586734 -0.02965249 -0.00621884
-0.02188962 0.02575081 0.00053219
0.01832955 0.03131991 0.00670410
0.01929926 -0.04075666 -0.00315469
-0.00886526 0.04300762 -0.00028245
-0.00241130 -0.03098358 0.00430322
0.00520545 -0.04592537 0.00627624
0.02236864 0.04191420 0.00153533
0.02840611 0.02832810 -0.00046841
0.00641007 -0.03261832 -0.00545978
-0.04403166 0.01494828 0.00651549
0.03487284 -0.00120678 -0.00276922
0.04091577 -0.02215756 -0.00349436
0.02385354 0.04094377 0.00347526
0.02484218 -0.02374758 -0.00216526
-0.02510520 0.03578201 0.00482839
-0.03026628 0.01479787 -0.00322039
-0.00713593 0.03732314 0.00477971
0.04318199 0.01518742 0.00516665
-0.00647026 -0.03801901 -0.00564200
-0.00362239 0.02817111 0.00460070
-0.02150573 0.02955896 0.00393252
0.03150621 -0.00907977 0.00175968
-0.01554523 -0.03001900 0.00211182
0.01986675 -0.03720227 0.00524814
0.04196746 0.01784782 -0.00427526
-0.03324055 0.00285119 0.00592765
0.01216296 0.03225488 -0.00580945
-0.04153562 -0.01527150 -0.00536278
-0.02907974 0.01606302 -0.00357866
-0.03036596 0.00367670 0.00654285
-0.03561889 -0.02094433 -0.00123184
0.01514702 0.03627747 0.00297955
-0.03568364 0.00122378 0.00042443
-0.00556189 0.02809642 0.00151219
0.03089463 -0.03401512 0.00286403
-0.00623506 0.02927616 -0.00068125
0.02906805 -0.02109704 -0.00335489
0.03372323 0.00798713 0.00311115
0.02958956 -0.01846565 0.00615836
0.02096744 0.03266519 0.00392591
-0.00525819 -0.03252820 -0.00403156
0.04287442 0.00756580 -0.00127954
0.02844766 0.02753818 0.00669258
0.02831177 0.03657941 0.00409232
-0.04057654 -0.01177869 -0.00580261
0.01978723 0.03458561 0.00040631
-0.00279581 -0.04361572 -0.00055955
-0.03012010 0.02453234 0.00108756
-0.02499845 -0.02729401 -0.00399930
-0.03750386 0.01646675 0.00276453
0.02423025 0.03913263 -0.00185567
-0.03310275 0.00920121 -0.00637247
0.02605492 -0.01560160 -0.00285007
0.01222232 -0.02668912 -0.00688190
0.01947962 0.02084754 -0.00409947
0.02248733 -0.03476821 0.00100808
0.04075897 0.01778555 -0.00366735
-0.02598961 0.02055723 -0.00673825
0.00169587 -0.03012269 0.00591469
0.02456466 -0.03147454 0.00336842
0.03071861 -0.00608146 -0.00299887
-0.00285822 0.04069466 -0.00504013
-0.03483902 -0.00547012 0.00415446
0.02061297 -0.02299780 0.00351690
0.00434441 0.03476720 -0.00634182
-0.01630194 0.02861967 0.00369484
-0.02941248 0.01337134 0.00285207
0.03795921 -0.00556887 0.00292048
-0.04441138 0.01312050 0.00592505
0.03999804 -0.01099319 0.00241303
-0.01182474 -0.03333661 0.00187280
-0.03706748 0.02727018 0.00438797
0.01358244 -0.03970688 -0.00552013
0.03770919 0.00873165 -0.00448475
-0.01885204 0.04195695 0.00278474
0.01973830 0.02997512 -0.00331219
-0.02734016 -0.01204757 0.00399345
0.00362158 0.03759574 -0.00577041
-0.01834960 -0.02873370 0.00322153
-0.02144846 0.03044609 0.00592155
-0.04044036 0.01978140 -0.00150930
-0.01548962 0.02800007 0.00563297
-0.01165010 0.02624308 -0.00548699
0.03453467 -0.00314069 -0.00315610
-0.02532100 -0.01800347 0.00302950
0.03654599 0.00508842 -0.00298111
-0.02986433 -0.02772639 -0.00269355
-0.00010111 0.03309246 0.00514581
-0.00805254 -0.02838304 0.00267773
-0.00691171 0.04620913 0.00022143
0.04204795 -0.00681157 -0.00615994
0.02842269 0.01522514 -0.00276622
0.00553981 0.03771267 0.00651013
0.03067275 0.02212869 -0.00005368
0.03017700 -0.03505109 -0.00678804
-0.04455246 0.01663098 0.00650254
-0.03580459 -0.00086078 -0.00128689
-0.02590678 0.01150053 0.00534408
-0.04152613 -0.02162318 -0.00652709
0.02747958 -0.02325623 -0.00670134
-0.03115957 -0.02448626 0.00024995
0.04148595 0.01482557 -0.00452125
0.03852782 0.02263776 -0.00377667
-0.04612535 0.00594529 0.00430960
0.02428817 0.03824369 0.00510435
-0.01609844 -0.02396318 -0.00194852
0.02727479 0.02554080 -0.00567004
0.01975948 0.02745290 0.00058428
0.01465806 -0.04023037 0.00501214
0.02324698 -0.02425991 -0.00110791
-0.01323253 -0.03914679 0.00450547
0.02862217 -0.02990383 -0.00457530
-0.00025014 0.03844601 -0.00645001
0.00881680 -0.03022803 -0.00451220
0.01816995 -0.02521257 0.00208086
0.03427027 -0.00341084 0.00298385
0.02556370 0.01401338 -0.00253151
0.02403913 0.01826230 -0.00314207
-0.03138370 -0.02254468 -0.00041553
-0.01146371 0.03946608 0.00656607
0.03727800 0.00738724 -0.00173107
0.02439751 0.02530221 -0.00314561
0.03589607 0.02127241 -0.00583245
0.01580858 0.02800546 -0.00668058
0.02631895 -0.03191718 -0.00613776
-0.00131872 -0.03595748 -0.00281903
-0.03391664 0.02030528 -0.00157546
0.02303978 -0.01862799 -0.00050755
-0.01862624 -0.04253303 -0.00045987
0.00094065 0.03216012 0.00169629
-0.03448348 -0.03055888 -0.00662811
-0.03483433 0.01418660 -0.00011801
-0.00429122 -0.04023263 0.00350178
0.01422342 0.03800639 0.00207833
0.02532665 -0.02124979 0.00439812
0.03952507 0.02487665 -0.00431073
-0.01919853 0.03581855 -0.00273533
-0.03272242 -0.03142075 0.00652290
0.01615170 0.04189207 -0.00276409
0.03841847 0.01963819 -0.00459279
-0.00624297 0.03344931 0.00385037
0.03689690 -0.00393571 0.00347164
-0.01122483 -0.03684077 -0.00563691
-0.00474289 0.03952857 -0.00015047
-0.01405816 0.03678503 0.00542723
-0.00135337 0.02876298 -0.00235131
0.01195859 0.04241730 0.00481757
0.03324172 0.02612820 0.00481956
0.01709787 0.04011084 0.00122599
0.00719094 -0.03821996 0.00668916
-0.01977471 0.02256303 -0.00499246
-0.02314902 0.02655938 -0.00461258
-0.02970000 -0.00886989 0.00240275
0.04624225 -0.00561139 0.00083820
0.03013391 -0.02337101 0.00398781
0.01733737 0.02949636 -0.00229821
-0.04276655 0.00847155 0.00689884
0.02583215 0.01667280 0.00587416
0.03099165 -0.03569132 -0.00119268
0.03091013 -0.03279641 -0.00694410
0.03557452 0.01669768 -0.00694140
-0.02927342 0.00159008 0.00102195
0.03570469 -0.01302288 0.00326310
0.03703945 0.00644167 -0.00522415
-0.03243124 -0.00364063 -0.00518922
-0.03739496 0.01869126 -0.00266020
-0.02091524 -0.01899535 0.00049096
-0.03347723 0.00852099 -0.00458104
-0.03195666 0.02835250 0.00509468
-0.00899203 0.02844310 0.00218557
-0.04171839 -0.00098356 -0.00441827
0.03249765 -0.00208097 0.00689790
0.01060632 -0.03793111 -0.00317625
0.00190016 -0.03064172 0.00659718
-0.00422998 -0.04775939 -0.00186701
0.02839292 0.03436551 0.00210828
-0.00168277 0.03765189 0.00620381
0.04000096 -0.02481945 -0.00048327
0.00652889 0.04756608 -0.00169547
-0.02761379 0.02771498 0.00699911
-0.02938900 0.01470380 -0.00126177
0.00238682 0.03020719 -0.00545445
0.00526394 -0.04150631 0.00152228
-0.02641230 -0.01487496 -0.00579926
0.03375420 -0.00238005 0.00362486
0.00713602 0.02945665 0.00558982
0.02719169 -0.02359664 -0.00450135
-0.01911938 0.02625846 -0.00270936
-0.03053146 -0.03203980 -0.00576578
0.04633729 -0.00724669 0.00636329
0.03849366 0.02113337 0.00492730
-0.01496563 0.03123766 -0.00406486
0.02231942 0.03421508 -0.00612976
-0.03646511 0.01798213 0.00336974
-0.04115984 -0.02010077 -0.00614473
-0.01440990 0.02856065 -0.00028714
0.04146985 -0.00422160 -0.00513644
0.00185731 -0.04427648 -0.00423919
-0.00122148 0.03153570 -0.00500954
-0.03049894 -0.02314366 -0.00475430
0.03962508 -0.00398835 -0.00297979
0.00235624 -0.03369223 -0.00081657
0.01525501 0.03201595 0.00598537
0.02456199 -0.03787633 0.00604809
-0.02696027 0.02846985 -0.00227288
0.02769684 0.01661146 0.00539716
0.03911866 -0.00591098 -0.00070326
-0.04000100 -0.01472237 -0.00559453
-0.02997281 -0.00467020 -0.00411749
-0.04694614 0.00506732 -0.00285584
0.01429231 -0.03981246 -0.00085005
-0.02968404 0.01601086 -0.00099357
-0.02488478 -0.02797942 -0.00309796
-0.01613138 -0.03625512 0.00031536
-0.01894034 -0.02959239 0.00281411
-0.01654472 -0.03969180 0.00342113
0.00733639 0.04422438 0.00470342
0.02209238 0.02670228 -0.00504148
-0.03706225 -0.02204058 -0.00310271
0.03393381 0.00480754 0.00327840
-0.01240469 -0.04470062 -0.00700709
0.04455571 0.00316185 0.00308923
-0.03048453 0.01447924 -0.00440933
0.00487376 -0.03981570 0.00288311
-0.03268229 0.01885427 -0.00479251
0.00757186 0.04690426 0.00191503
0.02728898 -0.03401805 0.00009608
-0.02643552 0.03391643 -0.00592057
0.02960512 -0.00504978 0.00390936
-0.01106196 -0.04339711 -0.00288367
-0.03735381 -0.00873041 0.00528862
0.00365341 -0.04275532 -0.00143848
-0.01439233 0.03063007 0.00404744
0.01567907 0.03731552 0.00299864
-0.02750007 -0.02214009 -0.00098924
0.02820869 -0.00455001 -0.00459907
0.01329623 0.02841058 0.00537067
-0.01356650 0.02939654 0.00287327
-0.00276242 0.03845156 -0.00701773
0.04493511 -0.00482157 -0.00155866
0.04349130 -0.00551060 0.00136903
-0.02381288 0.03833382 0.00201926
0.02074539 0.03209587 -0.00128486
-0.00002283 -0.04009702 -0.00100601
-0.02749878 0.03437965 -0.00074670
0.01781551 0.03998728 0.00374636
-0.00846461 0.03061701 0.00610516
0.00981273 0.04369606 0.00584704
-0.00210037 0.03872192 0.00561324
0.01490100 0.02476683 -0.00523616
-0.01365142 0.04444395 0.00366073
-0.04162542 -0.01720321 0.00047290
0.02496840 -0.01921230 0.00681417
-0.02173949 0.02422514 -0.00451052
0.02872566 0.01623401 0.00594194
-0.02546794 -0.03842623 0.00263364
-0.04233595 0.00288656 -0.00101066
-0.03394286 -0.02248330 0.00105982
0.03124931 -0.03140032 0.00649725
-0.00859664 -0.04452312 -0.00190655
0.02170322 0.02841788 -0.00571427
-0.03778241 0.01649877 -0.00580550
0.01019155 -0.04506940 -0.00621419
0.02723641 -0.01284470 -0.00274503
-0.03847715 -0.01411287 -0.00102599
0.02707781 0.03308206 0.00562955
-0.02306419 0.01805320 0.00118833
0.01862321 0.03023671 -0.00371602
-0.01213620 0.03899806 -0.00173309
-0.00370628 0.03775002 0.00397094
0.01407015 0.02731235 -0.00128106
-0.00747060 -0.03374256 -0.00507585
-0.03420232 -0.00352373 0.00437766
0.03199929 0.01246671 0.00043150
-0.02404534 0.01857879 0.00098789
0.02927054 0.01179775 -0.00594045
0.02073262 -0.03835088 -0.00500755
-0.03135977 -0.02455397 0.00356690
0.04256953 0.01726658 -0.00111749
-0.04095057 0.00691512 0.00143719
-0.00533465 -0.03437043 -0.00248030
-0.03194226 -0.02459107 0.00198266
0.00224785 -0.03434822 0.00306591
-0.03595229 0.00624075 -0.00591882
0.02395847 -0.03276537 0.00149362
-0.01760760 -0.03089159 -0.00393149
-0.04458202 0.00638513 -0.00695910
0.02654702 0.03047835 0.00189912
-0.00400570 0.03897820 0.00559428
-0.02211718 -0.02660906 -0.00294674
0.02799572 -0.03808610 0.00276890
0.03398841 -0.00001199 0.00413863
0.01153191 -0.03211075 0.00666948
-0.01981813 -0.02434456 -0.00252527
-0.00851639 -0.03448060 0.00507740
0.00246686 -0.03349702 0.00454147
-0.03519852 -0.00438175 0.00101252
-0.02799328 0.00777176 -0.00353477
-0.02181156 -0.02260211 -0.00187992
0.00372812 0.04133063 -0.00686376
0.00183456 0.03041523 -0.00276960
0.02511452 -0.01683181 -0.00057924
-0.01109557 0.03334215 0.00227588
0.02240069 -0.03979731 -0.00625699
0.02558952 -0.03927449 -0.00235865
-0.01753697 0.02409877 -0.00566087
-0.03695501 -0.02845808 0.00236991
0.01459701 0.03874682 -0.00204745
-0.00965877 0.04619427 0.00090083
-0.01303305 -0.04153777 -0.00260172
-0.02589611 0.03417292 0.00614592
-0.03877005 -0.01066826 -0.00374107
-0.00943385 -0.02637552 -0.00219532
0.02435620 -0.01749172 0.00081242
-0.01873749 0.02588430 -0.00349994
0.04367354 0.00431761 0.00390063
0.03036573 -0.00002236 0.00346921
0.03006677 -0.00895822 0.00096864
-0.00343231 0.03469290 0.00107950
-0.00722821 -0.04420501 0.00043647
-0.03958508 -0.02437822 -0.00143014
0.02073069 0.02985402 0.00224004
0.03805170 0.00035340 0.00143369
-0.01908653 -0.03545590 0.00047667
0.03385786 0.00213937 0.00076385
0.03289271 0.02261805 -0.00608377
-0.00195472 0.04742149 0.00636726
-0.03094965 -0.02032039 0.00617878
0.02728927 -0.01684827 -0.00195593
0.01716986 -0.02859090 0.00004397
0.04684104 0.00916603 -0.00558376
0.01680390 -0.04113363 -0.00652919
0.02831851 0.02717866 0.00251137
-0.01884570 0.02450716 -0.00665773
-0.03651486 0.01243019 -0.00273985
0.02718408 0.03538367 0.00159900
-0.03841271 -0.00676941 0.00596446
0.01242023 0.04373092 -0.00500203
-0.02967204 0.02467159 -0.00359254
-0.02213498 -0.02320953 -0.00167368
0.00907906 -0.03239198 0.00647150
0.02238266 -0.02842623 0.00344445
-0.02188213 0.02440224 -0.00262351
-0.03364687 -0.00503065 0.00663194
-0.00271421 0.04704297 -0.00540579
0.00893979 0.02678695 -0.00016271
0.04577238 0.00549532 -0.00247787
0.02413527 0.02514293 -0.00530426
-0.01277298 0.02651272 0.00383463
-0.00242302 -0.04562089 0.00251217
0.02629775 -0.02295754 -0.00628118
-0.03079942 0.00655675 -0.00435412
0.02397367 -0.01641467 0.00130421
0.02594444 0.03698565 0.00660164
-0.00698630 -0.03673585 0.00496938
-0.00440732 -0.03229198 0.00080860
-0.02256365 0.01801959 0.00647082
-0.02078842 0.03218691 0.00316422
0.02623846 0.02136788 -0.00097350
0.00157148 0.02816714 0.00440830
-0.03717680 -0.00223992 -0.00523035
-0.03007810 -0.03385192 -0.00276314
-0.02186926 0.03307765 0.00221986
-0.01044940 -0.03396501 -0.00629423
-0.00742077 -0.03120522 0.00435193
-0.02097371 0.04136757 0.00593325
-0.00983555 -0.02915494 -0.00160222
-0.01537015 -0.04507898 -0.00590935
-0.00988433 0.03452535 0.00323750
-0.01068318 -0.02743616 -0.00555904
-0.02374887 0.03830058 0.00566695
0.01897873 0.03671882 -0.00097129
-0.04013320 0.01715211 -0.00227777
0.03371584 -0.02137237 0.00672786
0.02740210 0.02097896 0.00600551
-0.03051220 0.01714920 0.00590869
0.02105701 -0.02180345 0.00078929
-0.00807549 -0.04381853 -0.00192747
0.00268180 0.03229483 -0.00232753
-0.01691499 -0.02678064 0.00374761
0.00849185 -0.03685797 -0.00154670
0.02577397 0.02603161 0.00269507
-0.00215529 0.03582705 0.00588535
-0.03388692 0.02628956 -0.00491548
-0.04136829 -0.01069689 -0.00448292
-0.01306684 -0.03903711 0.00178761
0.01408750 0.02649706 -0.00178255
-0.03037606 0.00976748 -0.00672666
0.03217144 -0.01545170 0.00609366
-0.04040392 0.02441865 -0.00595431
-0.02684566 -0.03053303 -0.00441804
-0.02718366 -0.01029244 0.00156992
-0.04100312 -0.00332688 0.00489516
0.02048738 0.03629327 -0.00695951
-0.01195172 -0.03778071 0.00546842
0.03293639 0.00380616 0.00298318
0.03416907 -0.01827673 0.00302710
0.02669789 -0.02168901 -0.00649393
0.00679362 -0.02860651 -0.00473633
-0.03311618 0.01155684 -0.00251995
0.00200081 -0.03637789 -0.00499836
0.01698364 -0.03962112 0.00287500
0.02890226 0.00928767 -0.00706668
-0.04744659 0.00275631 -0.00125036
0.00651116 -0.03925674 -0.00536972
-0.01192589 0.03246691 0.00658672
-0.00786996 0.02877653 -0.00488874
-0.03338964 0.00667000 0.00193288
0.03779084 0.02029203 0.00289448
0.02871484 -0.00126523 0.00264218
0.02713260 -0.02098879 -0.00464914
0.02610228 -0.04015873 -0.00277379
0.00799325 -0.04443839 -0.00066208
0.01561142 -0.03934916 -0.00285561
-0.01569383 -0.04202618 -0.00342240
0.02075005 0.03819637 -0.00291133
-0.00441799 -0.03195377 0.00327282
0.01402075 0.02434909 0.00242438
-0.03512995 0.01911744 -0.00158572
-0.00315456 -0.03523890 0.00319790
0.01872264 -0.03206391 -0.00673011
0.02277684 0.02779554 0.00211764
0.02066274 0.02219913 -0.00271833
-0.03445257 0.03130205 -0.00482913
-0.02799898 -0.00245225 -0.00021029
0.03652596 0.02241982 -0.00081613
-0.03390087 0.01027736 0.00622412
-0.01499044 -0.03589204 -0.00244380
0.03130534 -0.00255891 0.00177860
0.03870693 -0.01498080 0.00064667
0.02573328 -0.03198812 0.00144698
-0.03324267 0.02509519 -0.00589006
-0.03680833 -0.02169420 0.00162535
-0.02124755 -0.02364821 0.00543036
0.03116591 -0.01655193 0.00214906
0.01022044 -0.04430324 0.00641626
0.01963122 -0.02531960 -0.00657338
-0.03554990 0.00287993 -0.00009049
-0.00683883 0.03127409 -0.00630914
0.03513552 0.03226119 -0.00622899
0.01731556 -0.03734065 -0.00320959
-0.02492499 -0.01965269 0.00515910
-0.01234034 0.03780982 0.00470493
-0.03361772 0.00254279 0.00319166
0.02189261 -0.03960234 0.00666381
0.02199142 0.02931388 -0.00380223
0.04265051 0.00706377 -0.00082030
-0.03599260 -0.01543832 -0.00108488
-0.02527869 -0.02229572 0.00482744
-0.03583498 -0.02325347 0.00539693
-0.01917892 0.03910913 -0.00369518
0.03752405 0.02067917 -0.00527792
-0.00209905 -0.03207651 0.00433778
-0.00895283 0.03976759 -0.00213432
-0.00212458 0.04195319 -0.00127531
0.03801882 0.02653345 -0.00631135
0.01753036 -0.02524414 -0.00138835
-0.02043409 -0.02470250 -0.00000447
0.01800749 0.03899386 -0.00068745
-0.01492312 0.03247604 -0.00110205
-0.03788466 0.01823850 0.00124342
0.02296377 -0.04159206 0.00361641
-0.02563988 -0.02141819 0.00589693
0.02118373 -0.02490931 -0.00029006
-0.03520199 0.00344615 -0.00369462
-0.00936097 0.04113652 0.00268468
0.03346350 -0.01692386 -0.00450769
0.03511214 0.01467546 0.00437362
0.03287740 0.01191876 -0.00153666
0.03448420 0.01780569 -0.00138110
0.02907966 -0.01812412 0.00200623
-0.03469037 -0.01322404 -0.00334021
0.04409759 0.00703208 0.00694458
-0.04272658 0.00030771 0.00270533
0.03605031 -0.01984791 0.00209320
-0.02021063 -0.02516271 0.00393812
0.02592794 -0.03108870 0.00171601
0.02781911 -0.01825266 -0.00217050
0.00911169 -0.03076820 0.00689744
0.01876348 0.03878028 -0.00238760
-0.01490139 0.03789045 0.00319686
0.00651175 -0.03549054 0.00032768
0.03698317 0.02874047 -0.00042926
0.03109877 0.00236457 -0.00526039
-0.01655046 0.02432783 -0.00276213
0.01606226 0.04374479 -0.00521997
0.01625960 -0.04003124 -0.00350487
0.01035681 0.03206527 -0.00653142
-0.04620560 0.00726996 -0.00271243
0.00835487 0.02870602 0.00306305
-0.00683974 0.04493778 -0.00106500
0.03395387 -0.02068361 -0.00608615
0.00469632 -0.04684930 -0.00495281
0.04297693 -0.01126587 0.00469294
-0.04127942 -0.00797696 -0.00394731
-0.02753698 -0.00853398 0.00221621
-0.02165850 -0.02710720 0.00370137
0.01656361 0.04326173 -0.00436788
-0.02889235 -0.02125454 -0.00470329
-0.03033947 0.00001198 0.00598906
0.02930197 -0.00783652 -0.00488692
0.04590245 0.00925301 -0.00428195
-0.02703892 0.03126534 0.00061912
0.01399845 -0.04140152 0.00474966
0.02638068 -0.01494082 0.00399742
0.02039633 -0.03974238 -0.00441226
0.02886764 0.00209126 0.00599273
0.01776832 -0.03208648 0.00684722
0.03770322 0.02319523 -0.00138124
-0.02133734 -0.03479235 -0.00445457
0.02142969 0.03687119 0.00515427
-0.03117603 0.01715663 0.00307236
0.02243594 0.01761482 0.00385910
0.00609527 0.02861708 -0.00662640
0.02684502 0.01569274 -0.00652244
-0.01603766 -0.02427165 -0.00662711
-0.02164366 0.02513431 -0.00081395
0.03449773 0.02032372 -0.00054816
-0.02149346 -0.03353403 0.00674493
0.01684221 -0.02970748 0.00567357
-0.04625888 0.00122148 -0.00078029
0.01545365 -0.04461751 -0.00602110
-0.03665984 -0.01896120 -0.00237321
-0.00492146 0.03001004 -0.00645648
0.02924794 -0.01099435 0.00641966
-0.02067787 -0.01911495 0.00238815
0.00082712 0.02841160 -0.00422830
0.03386280 0.02192545 -0.00576757
-0.00968954 -0.03968869 -0.00379440
0.04353769 -0.01452142 -0.00564132
0.00300280 -0.03667737 -0.00593081
0.02863065 -0.02657700 -0.00086780
0.03619498 -0.02979233 0.00387451
-0.02439575 -0.01951767 -0.00390183
-0.03971522 0.00168263 0.00151159
-0.04033716 0.02105637 0.00126906
-0.02266571 -0.02213455 -0.00202442
0.02611413 0.01566800 -0.00197745
0.03120055 0.00068893 -0.00368593
-0.00981557 0.03904062 -0.00237045
0.02061401 -0.03030703 0.00459720
0.01000981 -0.03624204 0.00575540
0.03779723 -0.00281788 -0.00013710
0.01214782 0.02717918 -0.00505488
-0.03419315 -0.01478155 -0.00179158
0.00068002 0.04681791 0.00376566
0.04716381 -0.00701181 -0.00406080
-0.02533021 0.03428518 -0.00559845
0.01480151 -0.02530931 0.00269576
-0.03021864 -0.01243018 -0.00669671
0.00185925 -0.03799846 -0.00183618
-0.02671380 0.03368360 -0.00462746
0.02376430 0.03598255 -0.00053582
-0.03646497 0.01916169 0.00602281
-0.00259197 0.04517360 -0.00305069
0.04329182 -0.00592764 -0.00159754
-0.00003040 0.04596181 -0.00172248
0.03079358 0.02488082 0.00167364
0.03826570 -0.00979747 0.00122210
0.02740489 -0.03520206 -0.00611922
-0.02289766 -0.02574684 -0.00048035
0.00027644 -0.03747206 -0.00183969
0.01926797 0.02786133 0.00653012
-0.02857858 0.00490124 -0.00318190
-0.02737331 0.01401600 -0.00192543
-0.03648097 0.00009215 -0.00009453
-0.03057923 -0.01201060 -0.00014698
0.02632394 -0.02771795 -0.00489314
-0.00334885 0.03729902 0.00655798
0.02521711 -0.03652857 0.00070759
-0.02908340 -0.00166063 -0.00477459
-0.03862684 0.02834272 0.00471980
0.02827372 -0.00808785 0.00461210
0.01378116 -0.02778458 -0.00152175
-0.00934612 -0.03308215 -0.00676202
-0.01734727 -0.03470901 -0.00352909
0.02662791 0.02173432 -0.00086783
-0.02137638 -0.02400353 -0.00421849
0.03133191 0.02386390 -0.00336101
0.03992565 -0.02339724 -0.00190212
0.01113069 0.03908602 0.00701885
-0.02622594 0.03635628 -0.00236168
-0.02704967 0.03154725 -0.00526030
-0.00570286 -0.03780142 -0.00015879
0.02222266 -0.02198881 -0.00375731
-0.03817781 0.02453687 -0.00008736
-0.01680835 -0.04339995 0.00574075
-0.04143538 -0.01668585 0.00680383
-0.02789514 0.00620393 -0.00321458
0.03432389 0.00750197 -0.00535874
-0.00797498 -0.03827857 0.00351417
0.00021577 -0.03361530 0.00239632
-0.01567127 0.03150143 0.00372996
0.00207136 -0.04227383 -0.00418862
-0.02938147 0.02941764 -0.00614398
0.02776971 -0.03124547 0.00421237
0.03397609 0.01730494 0.00342525
-0.02596961 0.02156484 -0.00421042
-0.03657573 -0.01481977 0.00614214
-0.03686202 -0.02427642 -0.00382301
0.04674163 -0.00460393 -0.00392516
-0.00346352 0.03011859 -0.00674237
-0.02755768 0.00909885 -0.00521272
-0.01460356 -0.02902143 -0.00434763
0.01114281 0.02748297 -0.00506643
0.02935843 0.00580310 0.00388972
0.00210591 0.04162386 -0.00406713
-0.03138462 0.00469146 -0.00529624
-0.04695491 -0.00021153 -0.00396706
0.01151766 0.03786463 -0.00494455
-0.02859989 -0.02226761 -0.00232931
0.01621872 -0.03547264 -0.00538011
-0.04294293 0.00396890 0.00226805
-0.01259969 0.02877188 -0.00387998
0.04163019 0.01172450 -0.00294791
0.02331359 0.03847790 0.00676256
0.01675916 -0.03716266 -0.00112515
0.04028523 0.00772454 0.00264425
-0.00669118 0.03222995 0.00578684
-0.02768049 0.01210236 0.00643769
0.03097261 0.02028350 -0.00521844
-0.04002997 -0.00255359 0.00518545
-0.02234266 -0.03343145 0.00023349
0.03056169 0.03012715 0.00552144
-0.03011741 -0.01140310 0.00516160
-0.02142942 0.02237055 -0.00145909
0.03834138 -0.01991670 0.00340026
-0.01295020 -0.03948655 -0.00525239
-0.02473526 -0.01921896 -0.00404694
-0.04405901 -0.01058585 -0.00064986
0.03679425 0.00591084 -0.00058282
0.04422556 -0.00595186 0.00050508
-0.03267860 0.01439391 0.00331235
-0.02815607 0.02446537 0.00113437
-0.00505401 -0.03922109 0.00107996
-0.01953322 -0.02972607 0.00413487
0.00565665 0.04492607 0.00004323
-0.01438556 -0.02683157 0.00641257
0.04234912 0.01100979 0.00076593
-0.01096732 0.02649184 -0.00642441
-0.03158648 -0.00229556 0.00010657
0.02146306 0.03603643 -0.00643325
-0.01101724 0.03451657 0.00399138
0.02944471 -0.02657233 -0.00690643
0.01815876 0.04046202 -0.00507354
-0.03468370 0.01872193 -0.00281089
0.02065200 0.03281854 0.00240208
0.02791099 -0.01618974 -0.00341339
0.03585108 0.01745745 0.00609468
0.02982380 -0.03089424 -0.00373817
0.04165749 -0.00219200 -0.00379108
0.04258525 -0.00766570 0.00057942
-0.01765721 -0.02560018 0.00133366
-0.03255764 -0.02647231 -0.00284629
-0.03076300 0.02030927 0.00016241
0.03676490 -0.01513999 0.00658826
0.02892520 0.00027185 0.00555333
0.02526637 -0.01282264 -0.00243370
-0.00770018 0.04327520 0.00173821
0.02672939 -0.03720064 0.00112389
0.02941493 -0.01268930 -0.00215558
0.03228395 -0.03471051 0.00315918
-0.04563369 0.00674632 -0.00023059
-0.02725418 0.00782324 0.00573570
0.01180068 -0.02784876 0.00304815
-0.01931028 0.02096200 0.00181302
0.02684830 0.01347827 0.00128403
0.02324720 -0.02856004 0.00411157
-0.00763709 -0.02814383 0.00468886
0.02785482 -0.01612435 0.00448529
0.00846279 -0.03495840 0.00268916
0.01575690 -0.03894991 0.00281082
0.00304691 -0.03259585 -0.00233047
0.03225351 0.02901102 0.00020368
0.03455576 0.00367159 0.00486726
0.02205974 0.02194011 -0.00621698
-0.04458768 -0.01580670 0.00055777
-0.01693690 0.04337676 -0.00231269
-0.02585135 -0.03209440 -0.00504333
-0.02888128 0.00566923 0.00476859
-0.02451505 0.02652292 0.00055735
-0.01093337 0.03906368 0.00124684
0.00147596 -0.03490185 -0.00304000
0.04261288 -0.00819015 0.00543385
0.00650762 0.04718986 0.00424788
-0.02186701 0.02171607 0.00085430
-0.00033230 -0.03549455 0.00249352
0.01095111 -0.04113205 -0.00127528
-0.04618338 0.00980520 0.00672200
0.00084590 -0.04473254 0.00225761
-0.00977539 -0.03440358 -0.00283090
0.02333936 0.02395650 -0.00375718
0.00490784 -0.04328065 0.00035847
0.00663956 -0.02791689 0.00424705
0.01748835 -0.02964804 0.00568201
0.02070142 -0.02144257 0.00496513
-0.03070123 -0.01868933 0.00206198
-0.02666246 0.03265073 0.00407402
-0.03359001 -0.01597126 0.00048342
-0.04130333 0.01582528 -0.00151845
0.02476257 0.03983614 0.00188595
