ply
format ascii 1.0
element vertex 1396
property float x
property float y
property float z
end_header
0.05134044 -0.06165901 0.00091384
0.04307646 -0.06407560 -0.00048081
0.04750978 -0.05797985 0.00070618
0.03968028 -0.05951230 -0.00031136
0.04436887 -0.05059570 0.00043405
0.03161780 -0.04572425 0.00037638
0.04760132 -0.07130410 -0.00098574
0.03959526 -0.04556629 0.00041342
0.05124329 -0.06159597 0.00086890
0.04800620 -0.06326109 0.00066228
0.04220287 -0.05763726 0.00020583
0.03462079 -0.05636081 -0.00041091
0.04649780 -0.05551906 0.00068141
0.03257745 -0.05412306 -0.00035375
0.05258087 -0.06952620 0.00060258
0.03985706 -0.04369802 0.00021606
0.04781166 -0.06757317 0.00009635
0.04631482 -0.06601326 -0.00017968
0.03562249 -0.05330650 -0.00000245
0.05187811 -0.06934745 0.00049754
0.03828958 -0.04895894 0.00046093
0.03857932 -0.04537592 0.00044543
0.03078615 -0.04895802 0.00030102
0.04982285 -0.06949481 -0.00009592
0.05081205 -0.06772670 0.00039197
0.04055784 -0.04745026 0.00040920
0.04029059 -0.05402459 0.00062006
0.04248618 -0.06503055 -0.00078864
0.03726051 -0.04505395 0.00041326
0.04906053 -0.06108935 0.00074430
0.03330785 -0.04558028 0.00060151
0.04287448 -0.04974860 0.00055795
0.04376303 -0.05694281 0.00061433
0.04594415 -0.05770530 0.00060622
0.04141265 -0.05521606 0.00036381
0.04061944 -0.04834968 0.00036759
0.04067746 -0.05887584 -0.00001222
0.04694654 -0.06558141 0.00003058
0.02955914 -0.04737444 0.00007904
0.02794229 -0.04859881 -0.00004797
0.05412959 -0.06888918 0.00082080
0.03164898 -0.05087417 0.00006872
0.04450279 -0.06225612 0.00018734
0.03532624 -0.04835527 0.00032468
0.04186661 -0.06204063 -0.00044099
0.05019805 -0.05035707 0.00050040
0.05128738 -0.06145087 -0.00083730
0.05312732 -0.06132833 -0.00021999
0.06088317 -0.06105284 0.00086038
0.05828356 -0.06543712 -0.00021002
0.05785045 -0.06364618 -0.00016595
0.03811206 -0.04579165 0.00006827
0.05630698 -0.05973990 0.00056688
0.05554601 -0.06551983 -0.00093231
0.05138615 -0.04905007 0.00064856
0.05564658 -0.05467716 0.00081443
0.03763998 -0.04907606 -0.00025777
0.03983292 -0.04663267 0.00008437
0.04995200 -0.04982040 0.00053948
0.05253529 -0.05244738 0.00070481
0.03701679 -0.04853325 -0.00029082
0.04796999 -0.04290819 0.00044802
0.03629376 -0.04327162 0.00018016
0.05648421 -0.05925498 0.00047219
0.05789678 -0.06023622 0.00043085
0.04256616 -0.04611276 0.00031615
0.05014192 -0.04999064 0.00054196
0.05934985 -0.06332841 0.00032358
0.05877758 -0.06543648 -0.00022308
0.04427834 -0.04423082 0.00042876
0.03878170 -0.04553032 0.00010321
0.03823851 -0.04968574 -0.00033277
0.03765264 -0.04906580 -0.00033482
0.04643449 -0.05410342 -0.00016234
0.05003170 -0.05724872 -0.00004424
0.03854637 -0.04516761 0.00041240
0.04798175 -0.05792451 -0.00045352
0.04910534 -0.05533693 -0.00008744
0.03629753 -0.04549669 0.00002091
0.04385066 -0.04097503 0.00034026
0.05933918 -0.06393226 0.00034682
0.04347976 -0.05456287 -0.00066408
0.05070038 -0.05591120 0.00039008
0.05465414 -0.05818373 0.00022346
0.04410356 -0.03818325 0.00000903
0.04861395 -0.05928874 -0.00085760
0.05670208 -0.05502673 0.00084527
0.05901112 -0.05920886 0.00088291
0.04557691 -0.04008978 0.00020490
0.05112338 -0.05405828 0.00038312
0.04464590 -0.04405361 0.00064333
0.04271900 -0.03818229 0.00029552
0.05813689 -0.06437685 0.00005745
0.04742934 -0.04717235 0.00044636
0.05838487 -0.06526238 -0.00029635
0.05026615 -0.04744095 0.00067141
0.05494016 -0.05996636 0.00033958
0.04529492 -0.04403001 0.00064539
0.04771922 -0.05642814 -0.00018754
0.05520440 -0.05202813 0.00077632
0.05479641 -0.06198079 -0.00030288
0.04712881 -0.04456471 0.00062179
0.05750502 -0.06517259 -0.00053886
0.05484132 -0.06506985 -0.00101592
0.04776171 -0.05273867 0.00042352
0.04734993 -0.04502116 0.00044178
0.06004948 -0.06205752 0.00069211
0.04360066 -0.04050680 0.00026177
0.06185720 -0.06105680 0.00110254
0.05501476 -0.06111700 -0.00003366
0.04758048 -0.04862293 0.00063748
0.04269983 -0.04469312 0.00066849
0.04666572 -0.05423424 0.00019065
0.04933718 -0.04541701 0.00049501
0.04835310 -0.05772211 -0.00040491
0.03834168 -0.04486213 0.00023215
0.05424257 -0.06293085 -0.00048467
0.04304280 -0.04012547 0.00036885
0.03888822 -0.04212543 0.00060092
0.04390391 -0.03785727 0.00014698
0.03821053 -0.04957029 -0.00030474
0.05214096 -0.06019775 -0.00028651
0.05749428 -0.06198710 0.00014616
0.04923613 -0.04556098 0.00051656
0.04796177 -0.05392037 0.00027368
0.06021052 -0.05973692 0.00085759
0.06096221 -0.05908381 0.00104520
0.04665227 -0.05720465 -0.00074913
0.05963821 -0.06045175 0.00074676
0.03915601 -0.05056242 -0.00035532
0.05037610 -0.04651618 0.00053826
0.05127790 -0.05743694 -0.00002219
0.05159924 -0.06195192 -0.00085006
0.05691551 -0.05677166 0.00071018
0.05574626 -0.05556087 0.00072657
0.03962779 -0.04487772 0.00064702
0.05279671 -0.04977581 0.00061639
0.05368566 -0.05885738 0.00012339
0.05144335 -0.04796466 0.00065820
0.05330455 -0.06368989 -0.00095288
0.05194369 -0.06176091 -0.00083411
0.05998631 -0.05772002 0.00092436
0.05760808 -0.05724835 0.00078799
0.05515501 -0.06519815 -0.00096538
0.04166787 -0.04821077 0.00008876
0.03645072 -0.04241107 0.00024351
0.05928888 -0.06339991 0.00030217
0.05018409 -0.04558424 0.00050227
0.05811667 -0.05690245 0.00084265
0.05073177 -0.04988329 0.00071180
0.04559622 -0.04436706 0.00051406
0.05163393 -0.06035323 -0.00059229
0.05332460 -0.05515939 0.00068925
0.05341946 -0.05765754 0.00044088
0.03991223 -0.04913864 -0.00021445
0.03856966 -0.04986383 -0.00043844
0.06153475 -0.05981941 0.00106342
0.05549142 -0.06344527 -0.00049010
0.05077453 -0.05338329 0.00072347
0.04562564 -0.04016730 0.00024788
0.03901690 -0.03953818 0.00058175
0.04097835 -0.04733534 0.00037623
0.05255148 -0.05701962 0.00023371
0.04530514 -0.05621203 -0.00063949
0.04665170 -0.04493850 0.00040057
0.05552391 -0.05318390 0.00084337
0.04262147 -0.03836937 0.00018023
0.04513829 -0.05358343 -0.00014918
0.05324547 -0.04963121 0.00062301
0.04553199 -0.05655725 -0.00071072
0.05176839 -0.04799416 0.00043606
0.04170262 -0.03817716 0.00030463
0.04344273 -0.04164805 0.00032596
0.04971683 -0.05040523 0.00074053
0.05580390 -0.05943333 0.00052760
0.04942257 -0.04954636 0.00073020
0.04617182 -0.05528081 -0.00018010
0.06201968 -0.06341317 0.00080937
0.04373307 -0.04814450 0.00031018
0.05288506 -0.05666690 0.00053833
0.04217562 -0.04064714 0.00041888
0.06035306 -0.06513791 0.00031526
0.04502741 -0.05609106 -0.00070630
0.04690212 -0.05494402 -0.00022966
0.05844662 -0.06722694 -0.00057772
0.03977995 -0.03955616 0.00033256
0.04766745 -0.05698682 -0.00053105
0.04723824 -0.04972597 0.00066812
0.04184771 -0.05301044 -0.00049142
0.05306954 -0.06052820 -0.00036808
0.05399553 -0.05927028 0.00006207
0.03673571 -0.04583792 0.00001285
0.06136367 -0.06397949 0.00060694
0.04258191 -0.03730291 0.00003164
0.05400069 -0.05731057 0.00053575
0.04418103 -0.04144097 0.00029575
0.04754454 -0.04280386 0.00042811
0.05196074 -0.04883094 0.00060854
0.04121593 -0.05155818 -0.00018822
0.05273897 -0.04884663 0.00075165
0.06203469 -0.06308891 0.00079920
0.03524522 -0.04292341 0.00053598
0.04911847 -0.05971024 -0.00076014
0.04322913 -0.03756845 0.00008820
0.05245596 -0.04853098 0.00066345
0.04590116 -0.05322142 0.00001099
0.05285343 -0.06065558 -0.00024279
0.04780298 -0.05386257 0.00004647
0.06141501 -0.05968318 0.00101051
0.04154670 -0.04493014 0.00052397
0.03723192 -0.04424747 0.00046095
0.04432327 -0.04321336 0.00042554
0.05357883 -0.05824096 0.00024139
0.05735352 -0.06327009 0.00016260
0.03825904 -0.04035270 0.00034335
0.04554563 -0.03995670 0.00021992
0.04491935 -0.04169855 0.00034890
0.05695520 -0.06087301 0.00026479
0.04410374 -0.04249107 0.00040362
0.04663706 -0.04193353 0.00040342
0.04284046 -0.03679865 0.00001792
0.04871327 -0.04397769 0.00044815
0.05847018 -0.05602161 0.00098331
0.04874072 -0.05684548 -0.00010363
0.05893614 -0.06653009 -0.00046430
0.04160756 -0.04033978 0.00039281
0.06247995 -0.06102868 0.00107949
0.04272447 -0.04613477 0.00031130
0.04769217 -0.04307587 0.00040371
0.05892955 -0.06171044 0.00069628
0.05192999 -0.05153479 0.00058557
0.05575141 -0.05764480 0.00053775
0.05018806 -0.05913231 -0.00052005
0.04707990 -0.04174443 0.00032593
0.04074138 -0.04383793 0.00048760
0.04732908 -0.04797249 0.00043380
0.05644612 -0.05942078 0.00060117
0.03922740 -0.03972978 0.00031907
0.05508205 -0.06058251 0.00016404
0.05598237 -0.06585598 -0.00102477
0.04069245 -0.04612681 0.00025592
0.04381807 -0.05232646 -0.00000783
0.05534867 -0.05328497 0.00075162
0.05131066 -0.05848861 -0.00002576
0.03652276 -0.04658163 0.00006922
0.05701059 -0.05925343 0.00044376
0.04470356 -0.04302136 0.00035497
0.06296964 -0.06146228 0.00104088
0.04261144 -0.03648929 0.00000723
0.05117393 -0.06168335 -0.00089138
0.06255115 -0.06104656 0.00096425
0.03473041 -0.04633753 -0.00015699
0.05015238 -0.05827204 -0.00013918
0.05920168 -0.05805175 0.00084697
0.03889588 -0.04792449 -0.00014369
0.04711126 -0.04192236 0.00037270
0.05957366 -0.05831793 0.00089875
0.05142356 -0.04891756 0.00060583
0.05102300 -0.06025888 -0.00065299
0.04138110 -0.05098792 -0.00039192
0.04879793 -0.04396838 0.00046572
0.04886070 -0.04663841 0.00048971
0.04230472 -0.03917576 0.00036311
0.03929979 -0.04457181 0.00048865
0.04601490 -0.05484964 -0.00041193
0.04174768 -0.04957390 -0.00006856
0.04538887 -0.05644052 -0.00071418
0.04134743 -0.04933226 -0.00013737
0.04616111 -0.04800452 0.00052052
0.04422124 -0.03839731 0.00009384
0.05431336 -0.06403527 -0.00066982
0.04908455 -0.04742132 0.00047827
0.06080229 -0.05928293 0.00097771
0.05813416 -0.06223204 0.00032084
0.05790356 -0.05825815 0.00092729
0.03685668 -0.04354632 0.00016665
0.04386134 -0.04575185 0.00061411
0.05019516 -0.06068744 -0.00085927
0.05085293 -0.04655202 0.00055106
0.04866168 -0.04439779 0.00039125
0.05657942 -0.06039428 0.00027069
0.04266327 -0.04553715 0.00036518
0.05546971 -0.05251414 0.00066830
0.05228736 -0.05450798 0.00044754
0.05596407 -0.06004361 0.00020036
0.04710815 -0.04655493 0.00069623
0.05258041 -0.06208217 -0.00060920
0.04296245 -0.05420017 -0.00055946
0.04915388 -0.05772885 -0.00025319
0.03704124 -0.04378375 0.00053971
0.04257606 -0.05000595 -0.00004038
0.04671657 -0.05752527 -0.00080896
0.05751056 -0.06627944 -0.00047584
0.04887301 -0.04825614 0.00055765
0.03943884 -0.04784507 0.00019405
0.04333485 -0.03733062 -0.00000718
0.04711900 -0.05194853 0.00018593
0.03834049 -0.04925544 -0.00038391
0.04419906 -0.03831096 0.00007290
0.05182234 -0.06066106 -0.00055982
0.04646457 -0.04297258 0.00036943
0.05957167 -0.05737979 0.00102208
0.04913460 -0.04716351 0.00061677
0.04704569 -0.04885520 0.00047271
0.06283723 -0.06154791 0.00092739
0.05001762 -0.05457125 0.00014855
0.06082729 -0.06152677 0.00079169
0.04562875 -0.04534734 0.00062114
0.04035156 -0.04447572 0.00060233
0.04885664 -0.04396892 0.00032379
0.04429796 -0.05014011 0.00038899
0.05242448 -0.04945985 0.00076560
0.04290816 -0.04039879 0.00034779
0.05660685 -0.05368242 0.00074334
0.04870517 -0.05038981 0.00067509
0.04871858 -0.04515909 0.00041886
0.05581615 -0.05996182 0.00031609
0.05499586 -0.05432137 0.00071354
0.04187988 -0.05244843 -0.00050218
0.06216565 -0.06057638 0.00101495
0.05270207 -0.05679325 0.00019766
0.04193635 -0.04401894 0.00058536
0.05706840 -0.05691086 0.00074381
0.03984498 -0.04162711 0.00059654
0.05701696 -0.05752616 0.00073503
0.04063523 -0.03954829 0.00055353
0.04763998 -0.04889869 0.00055085
0.04808752 -0.05701446 -0.00041752
0.04057975 -0.04941777 0.00008445
0.05944600 -0.05949728 0.00085018
0.05772255 -0.06174163 0.00045647
0.04512310 -0.05049493 0.00004173
0.04941795 -0.05269986 0.00029905
0.05369236 -0.06152768 -0.00053211
0.04050965 -0.04428648 0.00031345
0.05550866 -0.06085494 0.00004691
0.05467422 -0.05189183 0.00083582
0.06043687 -0.05838893 0.00099726
0.06011574 -0.05790412 0.00091254
0.06108951 -0.05961635 0.00094734
0.03528942 -0.04597266 0.00007359
0.06036803 -0.05891037 0.00088312
0.04003655 -0.04030813 0.00036123
0.04445041 -0.03941623 0.00022489
0.05032675 -0.05607892 0.00038169
0.06057429 -0.06057414 0.00108468
0.03883415 -0.04182027 0.00034933
0.04779547 -0.05192847 0.00049165
0.05332659 -0.05353068 0.00056722
0.03921860 -0.04293936 0.00066550
0.04609812 -0.04813625 0.00064116
0.04209499 -0.05044496 -0.00003083
0.04939544 -0.05941604 -0.00064583
0.05155782 -0.05505135 0.00025749
0.04260793 -0.05376336 -0.00054447
0.05938643 -0.05721410 0.00085381
0.03452294 -0.04557602 -0.00009404
0.04371170 -0.05022180 0.00029109
0.04541696 -0.05645909 -0.00059079
0.05474837 -0.05582275 0.00062158
0.05711090 -0.05583704 0.00082888
0.04572768 -0.04091698 0.00025080
0.05669547 -0.05378626 0.00079901
0.05454561 -0.05944780 0.00025516
0.03974050 -0.04247468 0.00059599
0.05742822 -0.06488938 -0.00026670
0.05916934 -0.05691233 0.00092909
0.04768012 -0.05779155 -0.00073167
0.06143091 -0.05956049 0.00097831
0.04419482 -0.05517477 -0.00059442
0.05418468 -0.06029874 0.00021808
0.05877182 -0.06460332 0.00020556
0.06231553 -0.06080062 0.00102104
0.04396417 -0.03785674 0.00015550
0.05663489 -0.06200208 0.00006782
0.03823188 -0.04891217 -0.00006441
0.05828291 -0.06176719 0.00029927
0.04885824 -0.05956581 -0.00090312
0.05842596 -0.05871547 0.00075845
0.04686680 -0.04488837 0.00049194
0.05783625 -0.05530442 0.00090720
0.06299987 -0.06165013 0.00105011
0.05296259 -0.05680200 0.00052277
0.04127136 -0.03993458 0.00035256
0.05760135 -0.06768040 -0.00104409
0.03936158 -0.04430062 0.00027032
0.04942221 -0.05762171 -0.00042009
0.04649668 -0.05732003 -0.00070145
0.04393408 -0.04208351 0.00047622
0.05667629 -0.06248871 0.00018200
0.05062906 -0.04943486 0.00062072
0.04600614 -0.05130984 0.00013169
0.03653829 -0.04367118 0.00014025
0.03892854 -0.04407479 0.00024327
0.04548286 -0.05097219 0.00007089
0.04753304 -0.04251756 0.00035739
0.05509886 -0.06528106 -0.00107185
0.05204252 -0.04829029 0.00067477
0.04972603 -0.05169567 0.00065030
0.05530715 -0.05554755 0.00063363
0.04453908 -0.05556124 -0.00054209
0.04734962 -0.05804938 -0.00076898
0.04699516 -0.04430070 0.00049934
0.04478289 -0.05181900 0.00036420
0.05340032 -0.05459100 0.00053822
0.04253440 -0.03708729 0.00002546
0.06153256 -0.05965884 0.00105915
0.03479645 -0.04364046 0.00044916
0.04905132 -0.04441116 0.00044057
0.05138826 -0.05791548 0.00014811
0.04998297 -0.05217032 0.00055160
0.04873053 -0.05188387 0.00052191
0.04800549 -0.05594753 -0.00013391
0.05059075 -0.06110849 -0.00084647
0.05881382 -0.06567030 0.00002683
0.05332769 -0.05261649 0.00051724
0.03975676 -0.05041256 -0.00038746
0.04349590 -0.03921542 0.00032566
0.04268196 -0.04797215 0.00038774
0.04446344 -0.03861460 0.00012931
0.05357315 -0.05775007 0.00029112
0.03569976 -0.04575550 0.00024204
0.03968205 -0.04267131 0.00064730
0.04693618 -0.05149484 0.00050347
0.05769482 -0.06631947 -0.00054239
0.03900441 -0.04427755 0.00019478
0.05796963 -0.06257922 0.00045734
0.04165218 -0.04962564 0.00016696
0.03778271 -0.04339740 0.00029209
0.05646107 -0.05356794 0.00085368
0.03561720 -0.04698458 -0.00004202
0.05747279 -0.06624440 -0.00054186
0.04449153 -0.04841079 0.00032407
0.05242314 -0.05549564 0.00036622
0.04224037 -0.03691967 0.00006870
0.04049879 -0.05046159 -0.00004880
0.04813744 -0.04307644 0.00036670
0.05226189 -0.05425652 0.00070013
0.04450951 -0.05164407 0.00022625
0.05500548 -0.05721354 0.00046194
0.05282245 -0.05928176 0.00014292
0.05766046 -0.06551542 -0.00050482
0.05906699 -0.05931485 0.00087697
0.06090276 -0.06005898 0.00093039
0.05211360 -0.05023705 0.00072586
0.04014029 -0.05094236 -0.00042948
0.05599603 -0.06136813 0.00002705
0.06027245 -0.06280841 0.00053403
0.04677399 -0.04636505 0.00069178
0.05814841 -0.06675516 -0.00078569
0.05468771 -0.06070812 0.00026049
0.05943815 -0.06352783 0.00034301
0.05023506 -0.05652724 0.00015611
0.05229642 -0.04958847 0.00054289
0.04408186 -0.04655981 0.00062652
0.05837989 -0.06587814 -0.00053342
0.05013760 -0.05760107 -0.00028198
0.04964141 -0.05610151 0.00019204
0.03612816 -0.04339706 0.00012934
0.04593535 -0.04207618 0.00031184
0.05469203 -0.05678871 0.00045733
0.03587960 -0.04564301 0.00001904
0.05983096 -0.06196304 0.00060836
0.04234668 -0.04371628 0.00036541
0.04905660 -0.05116035 0.00061840
0.04538437 -0.03987354 0.00018288
0.03957426 -0.04331040 0.00059783
0.04917943 -0.05501001 0.00002452
0.05596818 -0.05292014 0.00074129
0.04307057 -0.04254347 0.00054912
0.05282471 -0.06073953 -0.00044623
0.04525574 -0.04374026 0.00065756
0.05188785 -0.05215669 0.00076924
0.04817434 -0.05670854 -0.00014669
0.03586231 -0.04760277 -0.00020596
0.05048933 -0.05864095 -0.00014609
0.05066866 -0.05754203 0.00006003
0.04725167 -0.04196618 0.00040653
0.05244699 -0.06017154 -0.00043848
0.05062578 -0.05201834 0.00056600
0.05636768 -0.05972764 0.00063679
0.04956574 -0.04666986 0.00058790
0.05677292 -0.06207441 0.00029884
0.05742755 -0.06410654 -0.00028986
0.05506359 -0.05430974 0.00062261
0.05334549 -0.05149177 0.00063818
0.04107480 -0.04508507 0.00064463
0.03905774 -0.04858434 -0.00019179
0.05729889 -0.05503188 0.00083204
0.05369993 -0.05248882 0.00070138
0.05063184 -0.05222827 0.00045356
0.04013302 -0.04625808 0.00044368
0.04014182 -0.05134756 -0.00034033
0.05034664 -0.05471634 0.00010429
0.04435197 -0.04668169 0.00039211
0.04830250 -0.05049176 0.00039030
0.04390057 -0.03794751 0.00014661
0.03771744 -0.04399488 0.00031733
0.05628901 -0.06318528 -0.00026830
0.05366273 -0.05659348 0.00060623
0.04240322 -0.04426173 0.00059823
0.04350022 -0.04123850 0.00035552
0.05068043 -0.05167974 0.00053094
0.04520749 -0.03946320 0.00026493
0.05485320 -0.05790786 0.00060733
0.04662815 -0.05605987 -0.00049660
0.05269367 -0.05882196 -0.00013704
0.04516024 -0.05035153 0.00045600
0.04607406 -0.05011989 0.00053629
0.05689615 -0.06129678 0.00044669
0.05428479 -0.05732895 0.00062424
0.04912547 -0.04434167 0.00046124
0.04053374 -0.05173182 -0.00044748
0.04182539 -0.04420816 0.00031739
0.03492575 -0.04664427 -0.00016467
0.06014405 -0.06486686 0.00039567
0.05676097 -0.06599797 -0.00084311
0.04841340 -0.05246723 0.00059837
0.04178059 -0.05283582 -0.00056947
0.05992559 -0.06530187 0.00004321
0.04648078 -0.05737553 -0.00067212
0.04541474 -0.05523130 -0.00027090
0.04149040 -0.05124434 -0.00012281
0.05897812 -0.06358875 0.00020075
0.04508267 -0.05429549 -0.00041861
0.05224943 -0.06252204 -0.00086955
0.03995706 -0.04386822 0.00041456
0.04597570 -0.05344588 0.00016054
0.04216984 -0.05330733 -0.00056766
0.06087155 -0.06108590 0.00085947
0.05766758 -0.06094860 0.00052498
0.06299315 -0.06144997 0.00096964
0.04917981 -0.05220681 0.00038391
0.05066052 -0.05480488 0.00020717
0.05467414 -0.06459718 -0.00097414
0.04119186 -0.04153078 0.00055114
0.04488662 -0.04641718 0.00043000
0.04795190 -0.04304543 0.00039329
0.04002607 -0.04515694 0.00020892
0.05106942 -0.05349140 0.00063816
0.04672671 -0.05333833 0.00018238
0.05684496 -0.06691281 -0.00104591
0.04150406 -0.04958322 -0.00001818
0.05723260 -0.05743390 0.00075109
0.05234570 -0.04920227 0.00065746
0.05969218 -0.06185882 0.00068797
0.04658346 -0.05741528 -0.00077518
0.05335719 -0.05107474 0.00078217
0.05975774 -0.05938501 0.00079649
0.04555268 -0.04809326 0.00065946
0.04796591 -0.05099170 0.00037990
0.05317999 -0.06053795 -0.00023578
0.05787541 -0.06541191 -0.00041592
0.04264802 -0.04709209 0.00050410
0.04429602 -0.04796991 0.00037183
0.04010287 -0.05141511 -0.00043893
0.04750961 -0.04690560 0.00053022
0.05705701 -0.06516459 -0.00032722
0.05560544 -0.05975499 0.00050805
0.05144871 -0.04764121 0.00057486
0.03875574 -0.04200931 0.00071354
0.06233955 -0.06244832 0.00088131
0.04865688 -0.05122284 0.00061522
0.05460913 -0.06415828 -0.00090010
0.06091071 -0.06256411 0.00080883
0.06014961 -0.06305145 0.00075438
0.05093809 -0.04659740 0.00058423
0.04666537 -0.04378710 0.00039238
0.03491247 -0.04431959 0.00011522
0.05482548 -0.05758734 0.00041677
0.06308848 -0.06170514 0.00106117
0.05317599 -0.05883122 -0.00000877
0.04624356 -0.04260240 0.00034642
0.05170271 -0.04806550 0.00066744
0.06281743 -0.06136021 0.00105314
0.05998652 -0.06391493 0.00057667
0.04328521 -0.03721622 0.00003970
0.04428540 -0.05482088 -0.00052255
0.04962730 -0.04509265 0.00039605
0.05194358 -0.06164639 -0.00056885
0.03633636 -0.04766784 -0.00016664
0.04297343 -0.03948432 0.00028972
0.05816516 -0.06484304 -0.00007475
0.05764012 -0.05568682 0.00091762
0.04850500 -0.05914837 -0.00082058
0.05729189 -0.06680888 -0.00080996
0.04532361 -0.05630327 -0.00063200
0.05565210 -0.06045790 0.00030250
0.05367535 -0.06317829 -0.00084300
0.04832665 -0.05872138 -0.00056613
0.05309729 -0.06359188 -0.00099757
0.05125258 -0.05499107 0.00027105
0.04905250 -0.04914424 0.00049501
0.03856980 -0.04596672 0.00006096
0.05574771 -0.06143760 0.00017504
0.04762255 -0.05837858 -0.00073006
0.06151858 -0.06118810 0.00098156
0.05290627 -0.04909282 0.00063258
0.03934769 -0.04065504 0.00057734
0.05055578 -0.05935556 -0.00028782
0.04091804 -0.05217117 -0.00040411
0.04915064 -0.05407918 0.00005804
0.04275042 -0.04044626 0.00031022
0.05894545 -0.06038858 0.00056766
0.05749068 -0.05969316 0.00051180
0.05658584 -0.06216324 0.00027920
0.04250929 -0.03945628 0.00030049
0.06158935 -0.06309156 0.00073201
0.04756701 -0.05839866 -0.00068272
0.05548752 -0.06465553 -0.00061342
0.05834931 -0.06294187 0.00042824
0.04763863 -0.04303906 0.00039302
0.04724807 -0.04665436 0.00070853
0.04769696 -0.04309615 0.00051069
0.05239234 -0.04830786 0.00067239
0.04879202 -0.05354525 0.00042537
0.04051027 -0.04771496 0.00033205
0.04292469 -0.05176209 -0.00002322
0.05151571 -0.06169896 -0.00092848
0.04815185 -0.05373062 0.00003886
0.05267833 -0.05982901 -0.00025805
0.04927956 -0.04757063 0.00057189
0.05015194 -0.05544356 0.00042506
0.04242971 -0.05264714 -0.00031655
0.05366197 -0.05114848 0.00069615
0.04477583 -0.05411523 -0.00042224
0.05428618 -0.06420403 -0.00100802
0.05911290 -0.05772692 0.00089987
0.05304228 -0.05601083 0.00037082
0.05023779 -0.05659832 0.00019981
0.04623607 -0.05496633 -0.00015680
0.04868165 -0.05600612 0.00005307
0.05466685 -0.05110048 0.00072038
0.04446450 -0.05542037 -0.00058661
0.05903493 -0.05932903 0.00085189
0.04269650 -0.04687502 0.00029311
0.04598364 -0.04401779 0.00051548
0.05781523 -0.05979469 0.00049080
0.03567671 -0.04630981 -0.00012355
0.03916184 -0.04154351 0.00031745
0.05427870 -0.05731187 0.00041516
0.05571545 -0.06587173 -0.00093138
0.03890338 -0.04816720 0.00010804
0.04366952 -0.05101409 -0.00015262
0.04939984 -0.05964155 -0.00085901
0.05208751 -0.05778833 0.00027841
0.04713199 -0.05597973 -0.00047220
0.05319166 -0.05832468 -0.00001352
0.05043588 -0.05736429 -0.00021843
0.03853854 -0.04780278 -0.00013979
0.04400590 -0.03810099 0.00005439
0.05238413 -0.06048495 -0.00048645
0.05417452 -0.05767272 0.00032649
0.05271663 -0.04874078 0.00067967
0.03900698 -0.04506901 0.00044701
0.05092462 -0.06142486 -0.00078233
0.03581489 -0.04352541 0.00048026
0.04697589 -0.04416946 0.00052846
0.05063028 -0.04748850 0.00068386
0.05292554 -0.05462589 0.00066500
0.05492384 -0.05901428 0.00024330
0.05468646 -0.06018067 0.00006189
0.05634698 -0.06559630 -0.00065393
0.05459486 -0.06054485 -0.00003603
0.04636756 -0.05130856 0.00047580
0.03673794 -0.04563936 0.00004088
0.05217913 -0.06228202 -0.00081628
0.05322350 -0.05038366 0.00068726
0.04601217 -0.04045934 0.00036211
0.05589277 -0.06368808 -0.00034135
0.04296423 -0.03983808 0.00030435
0.06143331 -0.05965953 0.00097655
0.04808711 -0.04715664 0.00049032
0.04977100 -0.04655935 0.00043825
0.05852559 -0.06403287 0.00030210
0.04042181 -0.04160997 0.00066790
0.05681709 -0.05805195 0.00054024
0.04758897 -0.05614498 -0.00040370
0.05586768 -0.06612888 -0.00103477
0.05782154 -0.06446309 -0.00008054
0.05737275 -0.06459452 -0.00035869
0.05237994 -0.05797081 0.00024013
0.04602575 -0.05682570 -0.00070867
0.05823035 -0.06322736 0.00018405
0.03755930 -0.04460923 0.00048780
0.04914934 -0.04578303 0.00055689
0.04043892 -0.04643106 0.00043388
0.05286696 -0.06026309 -0.00009383
0.06042607 -0.05942696 0.00088711
0.05755551 -0.05490302 0.00097030
0.05923280 -0.06023816 0.00071977
0.05365289 -0.05314282 0.00060024
0.04452369 -0.05165650 0.00019882
0.04689959 -0.04289002 0.00039021
0.05407221 -0.05626100 0.00069484
0.04827363 -0.04662482 0.00056905
0.05579067 -0.06252714 -0.00023828
0.04915602 -0.05731403 -0.00044216
0.06277761 -0.06128578 0.00106109
0.05034077 -0.04842263 0.00066264
0.04761893 -0.04657379 0.00058459
0.04592580 -0.04200274 0.00031174
0.04090178 -0.04437954 0.00053598
0.04405770 -0.03967296 0.00028965
0.05064236 -0.06123151 -0.00089959
0.04741622 -0.05579449 -0.00045979
0.04580259 -0.05114329 0.00004386
0.05402246 -0.06431938 -0.00098888
0.06009023 -0.06354300 0.00037145
0.04705464 -0.04624196 0.00069622
0.05538200 -0.05577560 0.00077153
0.04942937 -0.04637907 0.00049289
0.05489875 -0.06203966 -0.00028558
0.05540346 -0.05209859 0.00077339
0.04743931 -0.05708330 -0.00037786
0.05129859 -0.04997475 0.00069673
0.04893379 -0.04417308 0.00048236
0.05727057 -0.05963667 0.00055839
0.03781290 -0.04927034 -0.00030446
0.05681988 -0.05385125 0.00088508
0.05676123 -0.06290357 -0.00010323
0.04246598 -0.05369148 -0.00051369
0.05681425 -0.06063405 0.00033602
0.04706789 -0.05518054 -0.00004015
0.05362692 -0.05450256 0.00057564
0.04602057 -0.05278199 0.00003848
0.05608103 -0.05291050 0.00075179
0.04942789 -0.04821737 0.00054255
0.04251606 -0.04692953 0.00036447
0.05148122 -0.06195470 -0.00097086
0.05581218 -0.06439499 -0.00044827
0.06188939 -0.06269456 0.00090757
0.05686373 -0.06356065 0.00003693
0.05495768 -0.06108303 0.00022373
0.05397942 -0.05266203 0.00073785
0.04818744 -0.05154004 0.00058340
0.05891392 -0.06042517 0.00069624
0.05360917 -0.05941748 -0.00000411
0.05576325 -0.06425446 -0.00065692
0.05149298 -0.05308873 0.00051719
0.04000080 -0.04255049 0.00070177
0.05221130 -0.05714770 0.00014109
0.03788814 -0.04951459 -0.00036304
0.04275298 -0.04099967 0.00036463
0.04263195 -0.03627056 0.00013004
0.04877975 -0.05942299 -0.00077377
0.04261250 -0.04855726 0.00041175
0.04357984 -0.05439958 -0.00049748
0.04716890 -0.04725441 0.00043982
0.04884998 -0.04444428 0.00049768
0.04308625 -0.04762972 0.00019523
0.05611541 -0.05979346 0.00025781
0.05680726 -0.06457208 -0.00037684
0.04802728 -0.05313346 0.00020593
0.05661000 -0.06676782 -0.00108106
0.06003309 -0.05860477 0.00093531
0.04497812 -0.04321006 0.00051499
0.05828740 -0.06727307 -0.00089612
0.05555836 -0.06351119 -0.00028863
0.04767163 -0.04467132 0.00055133
0.04253371 -0.03643562 0.00002887
0.04540301 -0.05500883 -0.00045376
0.03977796 -0.04672240 0.00040699
0.04461263 -0.04277741 0.00057058
0.03467563 -0.04514732 0.00022988
0.04892032 -0.05668014 -0.00009859
0.05447415 -0.05346210 0.00079943
0.04725273 -0.05186527 0.00025830
0.05360063 -0.05660548 0.00069593
0.04630752 -0.04610739 0.00042317
0.04489212 -0.04967809 0.00050808
0.05575331 -0.06576344 -0.00084132
0.03657524 -0.04289557 0.00062302
0.05577979 -0.05261833 0.00093192
0.05553558 -0.05932319 0.00048721
0.04984113 -0.04875562 0.00054524
0.06210383 -0.06129676 0.00100971
0.04036817 -0.04436168 0.00063536
0.05371364 -0.06349269 -0.00081304
0.05798398 -0.06027061 0.00056880
0.05335188 -0.05459691 0.00056361
0.05164447 -0.05983668 -0.00024237
0.05124430 -0.05316996 0.00066740
0.04303682 -0.04437933 0.00043290
0.05832852 -0.05912282 0.00082441
0.04711402 -0.04775661 0.00058623
0.05668673 -0.05894717 0.00046009
0.05658135 -0.05488328 0.00079613
0.03699101 -0.04850388 -0.00016209
0.05390875 -0.05596073 0.00047967
0.04078058 -0.04881563 0.00020364
0.04852136 -0.05839165 -0.00067177
0.05418604 -0.06171230 -0.00038307
0.05273232 -0.05850328 -0.00001881
0.04885046 -0.05500635 0.00027875
0.03967865 -0.04829577 0.00022653
0.05803929 -0.06548845 -0.00045359
0.05565109 -0.05635202 0.00054810
0.05121788 -0.04703700 0.00066074
0.04693348 -0.04175313 0.00026585
0.04377501 -0.03788377 -0.00000219
0.06039855 -0.06499720 0.00038034
0.04524623 -0.04130699 0.00050106
0.05398452 -0.06411059 -0.00088845
0.05290149 -0.05046853 0.00068349
0.05729783 -0.06033347 0.00046085
0.05745753 -0.05512725 0.00093624
0.05788205 -0.05526273 0.00085332
0.06048341 -0.05853146 0.00095913
0.05169870 -0.06213991 -0.00097614
0.05882319 -0.06506379 -0.00020845
0.05040110 -0.04905913 0.00054461
0.03927557 -0.04418100 0.00034369
0.05838675 -0.06355034 0.00026887
0.03452485 -0.04614081 0.00002605
0.05263089 -0.05093871 0.00077265
0.05392094 -0.05136321 0.00084198
0.03749999 -0.04281536 0.00012528
0.04413223 -0.03816981 0.00023044
0.05226936 -0.05170445 0.00050439
0.04392392 -0.05490105 -0.00059187
0.05139053 -0.06011935 -0.00042408
0.05113329 -0.04780214 0.00058897
0.04716058 -0.04425270 0.00042592
0.05722430 -0.06353315 -0.00000493
0.04012971 -0.05133181 -0.00040253
0.04219638 -0.04367071 0.00057401
0.05304728 -0.05572447 0.00058874
0.05459871 -0.06102659 0.00013198
0.05139024 -0.05742030 0.00033132
0.05290025 -0.05987627 -0.00030838
0.04865274 -0.04990404 0.00043173
0.05141629 -0.05242488 0.00051947
0.05719942 -0.06640235 -0.00097055
0.04560707 -0.04451403 0.00043649
0.04844879 -0.05595210 -0.00025999
0.05550196 -0.05274586 0.00083576
0.04493953 -0.05198862 -0.00012321
0.05281652 -0.06189389 -0.00049709
0.06005482 -0.05826634 0.00094747
0.04449218 -0.05035665 0.00004873
0.04862620 -0.05440660 0.00005029
0.03875834 -0.05023605 -0.00034808
0.05176843 -0.05690881 0.00007881
0.04614679 -0.05699301 -0.00060767
0.04006460 -0.04067893 0.00039563
0.06188382 -0.06317048 0.00092981
0.03996065 -0.04501897 0.00056607
0.04299865 -0.04341612 0.00057816
0.04541278 -0.04822076 0.00035870
0.05942255 -0.06489447 0.00005221
0.05091151 -0.05788815 0.00002340
0.05504258 -0.06203384 -0.00000415
0.05098017 -0.05061608 0.00053313
0.05392422 -0.05150720 0.00078221
0.05318332 -0.06025757 -0.00025422
0.05234243 -0.04972541 0.00070238
0.05746639 -0.06477231 -0.00043886
0.03453797 -0.04555531 -0.00009406
0.05415231 -0.06143336 -0.00040190
0.05380908 -0.05870734 0.00030584
0.04819478 -0.05408197 0.00002833
0.06211781 -0.06258716 0.00088350
0.04526699 -0.04276812 0.00039404
0.03528496 -0.04684919 -0.00015918
0.05573418 -0.05493838 0.00093683
0.05024686 -0.05717580 -0.00001273
0.05756056 -0.05970406 0.00076577
0.04451887 -0.03863121 0.00020900
0.05322982 -0.05909541 -0.00001001
0.03990704 -0.04358317 0.00066957
0.03703044 -0.04479013 0.00035938
0.04320167 -0.04763226 0.00053234
0.05674178 -0.06184985 0.00008905
0.04054555 -0.05067319 -0.00009128
0.05071399 -0.06142027 -0.00087372
0.05017947 -0.05866275 -0.00054675
0.04695529 -0.04555902 0.00058384
0.04171547 -0.05182129 -0.00022236
0.04594867 -0.05499054 -0.00017929
0.04349470 -0.05445374 -0.00059547
0.06038581 -0.05929004 0.00087973
0.04972795 -0.04565552 0.00049534
0.04246615 -0.03807315 0.00015592
0.04831158 -0.05749970 -0.00038232
0.04948044 -0.04949598 0.00061852
0.05231388 -0.06059724 -0.00057484
0.04364187 -0.05098758 0.00012157
0.04325650 -0.05425109 -0.00055791
0.04272755 -0.04957351 0.00037861
0.05947801 -0.06222575 0.00060548
0.05283341 -0.06320944 -0.00100306
0.03508890 -0.04549648 -0.00014639
0.03641360 -0.04694296 0.00008720
0.06340398 -0.06223958 0.00111344
0.05543957 -0.06053402 0.00012725
0.04752900 -0.05808292 -0.00073375
0.05153972 -0.06206848 -0.00094254
0.05000152 -0.04534517 0.00053048
0.04541390 -0.05465432 -0.00029791
0.05787643 -0.06364889 0.00015609
0.05805087 -0.06082208 0.00052237
0.04262208 -0.04773203 0.00019105
0.06283754 -0.06147832 0.00101449
0.04358234 -0.05275427 -0.00030433
0.03885918 -0.04423893 0.00053297
0.04354093 -0.05353281 -0.00046830
0.04494638 -0.03920915 0.00019737
0.04398477 -0.04976026 0.00045481
0.04510965 -0.05599154 -0.00065727
0.05984427 -0.05781722 0.00100284
0.03855685 -0.04831910 0.00015504
0.04365000 -0.04186189 0.00027369
0.04562495 -0.05661376 -0.00071149
0.04195812 -0.03835535 0.00029074
0.05269665 -0.05464781 0.00044864
0.05497950 -0.06530465 -0.00103841
0.05264750 -0.06242642 -0.00079420
0.04430161 -0.05420534 -0.00049045
0.04274366 -0.04207414 0.00034673
0.03807127 -0.04374134 0.00058270
0.04137023 -0.04865203 0.00026822
0.03987709 -0.04445362 0.00051965
0.03618847 -0.04367928 0.00018901
0.04058397 -0.04110891 0.00068967
0.04178413 -0.05293906 -0.00048719
0.05685100 -0.06595718 -0.00080199
0.05384820 -0.05845515 0.00036601
0.06242702 -0.06314044 0.00084946
0.04738691 -0.04317587 0.00042757
0.04404354 -0.04003348 0.00031890
0.04846145 -0.04971543 0.00066678
0.06213364 -0.06348311 0.00078848
0.05992317 -0.05844760 0.00092632
0.04435699 -0.05489368 -0.00048901
0.04398048 -0.03816194 0.00008619
0.05861509 -0.06501348 -0.00019805
0.04553595 -0.04121076 0.00031746
0.05604461 -0.06625250 -0.00106213
0.04723370 -0.05737815 -0.00065884
0.05584484 -0.05697577 0.00080958
0.05007700 -0.05454557 0.00044466
0.03500057 -0.04600441 0.00010991
0.03804872 -0.04508525 0.00046281
0.05890614 -0.06622576 -0.00052502
0.05389480 -0.05030185 0.00071282
0.05765977 -0.05490253 0.00082271
0.05623768 -0.06570438 -0.00080117
0.04101840 -0.04436161 0.00032140
0.04130668 -0.04058556 0.00052594
0.04751758 -0.05434268 0.00012827
0.06282036 -0.06220993 0.00096025
0.03599324 -0.04643871 0.00012219
0.04326432 -0.05268809 -0.00043731
0.04171999 -0.05043116 -0.00020856
0.05086597 -0.05107621 0.00057580
0.04672816 -0.05760013 -0.00070840
0.05045968 -0.05149119 0.00074979
0.05812546 -0.05748993 0.00092380
0.04930475 -0.05515455 0.00031063
0.04861368 -0.05352426 0.00013909
0.04525775 -0.05519743 -0.00051172
0.04374354 -0.05411462 -0.00037788
0.04698323 -0.04182236 0.00038895
0.04547396 -0.04699605 0.00064378
0.03540964 -0.04408703 0.00034949
0.06073328 -0.05877215 0.00101965
0.04236893 -0.04843547 0.00037267
0.05893789 -0.05712731 0.00088002
0.04688662 -0.05653200 -0.00044801
0.04226617 -0.05245326 -0.00024167
0.03482953 -0.04418174 0.00008633
0.05385778 -0.05021993 0.00074162
0.05548854 -0.05440804 0.00074547
0.05002565 -0.05628711 0.00024070
0.03850357 -0.04989610 -0.00038297
0.05553859 -0.05236895 0.00083129
0.05663237 -0.06163207 0.00030377
0.05051512 -0.05966276 -0.00062236
0.04622493 -0.05008921 0.00031017
0.05988893 -0.05786295 0.00094606
0.04477679 -0.03891136 0.00025578
0.04340612 -0.05280540 -0.00021731
0.05174647 -0.06100990 -0.00059379
0.05324246 -0.05248775 0.00056973
0.04685124 -0.04158373 0.00025744
0.04989357 -0.05624663 -0.00004445
0.04568884 -0.04993903 0.00051988
0.05656073 -0.06620521 -0.00076877
0.04258641 -0.05379956 -0.00056917
0.03617904 -0.04709666 -0.00001052
0.05123672 -0.05617647 0.00037939
0.04358364 -0.04072393 0.00035282
0.05206542 -0.05022797 0.00062091
0.05689462 -0.06596451 -0.00081164
0.06062421 -0.05911025 0.00087456
0.04747646 -0.04524762 0.00046035
0.05259613 -0.05658891 0.00048660
0.04208318 -0.04476962 0.00042933
0.04426053 -0.04472881 0.00044953
0.04557181 -0.05557541 -0.00040391
0.03603737 -0.04603778 -0.00002958
0.06180524 -0.06024313 0.00102557
0.03426244 -0.04537906 0.00004593
0.04615608 -0.05272828 0.00002892
0.03497688 -0.04646354 -0.00007015
0.04196219 -0.05089472 -0.00027459
0.05422245 -0.05581361 0.00074861
0.05315643 -0.05647096 0.00035661
0.03986334 -0.04465873 0.00056514
0.05096554 -0.06061107 -0.00084316
0.05912824 -0.06402349 0.00015555
0.04844196 -0.04913789 0.00069090
0.04522548 -0.04093880 0.00038576
0.03966008 -0.04585768 0.00013222
0.03799256 -0.04813685 -0.00003301
0.04677614 -0.05709436 -0.00056975
0.05680238 -0.05384977 0.00093518
0.05709330 -0.06480832 -0.00044800
0.04654580 -0.05205959 0.00028396
0.04830214 -0.04340110 0.00042459
0.04534112 -0.05362949 -0.00032992
0.04698568 -0.04808902 0.00044731
0.05422423 -0.06051657 -0.00001890
0.05111818 -0.06179986 -0.00080324
0.04319521 -0.04858714 0.00020677
0.03997593 -0.04165564 0.00038836
0.03726164 -0.04673530 0.00018461
0.04831225 -0.04385682 0.00036973
0.04537926 -0.03967865 0.00023261
0.04518932 -0.05506669 -0.00028420
0.05298196 -0.06295721 -0.00080347
0.05897728 -0.06255925 0.00034136
0.04809801 -0.04741286 0.00067283
0.03686711 -0.04748767 -0.00017716
0.04549337 -0.05178409 0.00026558
0.05177206 -0.05177644 0.00066744
0.03992370 -0.04084156 0.00038093
0.03604880 -0.04385417 0.00018050
0.04840376 -0.04952471 0.00048440
0.05586752 -0.05535064 0.00073165
0.04913090 -0.04450077 0.00050367
0.03553871 -0.04513306 0.00020073
0.05410108 -0.05056690 0.00068667
0.04946498 -0.05111117 0.00065421
0.05575191 -0.06045031 0.00018655
0.04716647 -0.05632600 -0.00029121
0.04196930 -0.04975720 0.00020104
0.04514782 -0.05326274 -0.00000626
0.04230747 -0.04025091 0.00042014
0.03952779 -0.04257235 0.00070388
0.04372558 -0.05310573 -0.00043655
0.05480078 -0.06485044 -0.00092182
0.05088758 -0.06114795 -0.00090813
0.05691159 -0.05632419 0.00081669
0.04224815 -0.04179514 0.00053462
0.03654739 -0.04772524 -0.00002996
0.04640515 -0.05722004 -0.00078833
0.04565353 -0.04191387 0.00028518
0.05700947 -0.06700371 -0.00095934
0.03767352 -0.04912209 -0.00027331
0.05037051 -0.05300475 0.00067646
0.05333586 -0.05846189 0.00004318
0.05467826 -0.06505613 -0.00099094
0.04841571 -0.04773478 0.00057274
0.04866326 -0.05578248 -0.00014854
0.04024136 -0.04237076 0.00060101
0.04445210 -0.04335364 0.00018512
0.06803459 -0.05498834 0.00080960
0.04694795 -0.04026581 0.00051105
0.05076556 -0.04140427 0.00042282
0.06475026 -0.04921764 0.00094127
0.05329377 -0.05195624 -0.00069772
0.05250286 -0.04270956 0.00058934
0.05915245 -0.04372703 0.00065175
0.05990943 -0.05357528 -0.00023149
0.05724145 -0.04751345 0.00044146
0.06606832 -0.05924804 -0.00023970
0.05187416 -0.04486068 0.00025582
0.04822538 -0.04294848 0.00015078
0.06092543 -0.04841483 0.00067839
0.04871989 -0.03711483 0.00053914
0.06880208 -0.05503160 0.00088046
0.05791884 -0.04772250 0.00064490
0.05661893 -0.04590211 0.00055398
0.06227268 -0.04684610 0.00093594
0.04852641 -0.03574938 0.00035876
0.05148668 -0.03613014 0.00031591
0.04718576 -0.04359030 0.00033497
0.06503106 -0.05775678 0.00002395
0.06244117 -0.04698111 0.00087833
0.05179029 -0.04129473 0.00063717
0.06653815 -0.05871440 -0.00015828
0.04945745 -0.03418211 0.00024395
0.04971723 -0.04588849 0.00022537
0.05254583 -0.03849930 0.00046110
0.04810599 -0.04404604 -0.00000453
0.05374541 -0.04552271 0.00058773
0.06946974 -0.05389974 0.00110368
0.06602323 -0.05621227 0.00047343
0.05565281 -0.05036771 -0.00000168
0.06059306 -0.05745173 -0.00086800
0.05630488 -0.04327937 0.00057592
0.06266121 -0.05465524 0.00014811
0.04058823 -0.03840835 0.00050629
0.05477528 -0.04590695 0.00035398
0.06563239 -0.05693664 0.00031564
0.05807059 -0.04442098 0.00077911
0.05297654 -0.03763975 0.00041850
0.05647675 -0.04096853 0.00057978
0.06435184 -0.05648041 -0.00012285
0.05173871 -0.04410616 0.00037607
0.04858312 -0.03426036 0.00022211
0.04773177 -0.03682057 0.00040341
0.04696160 -0.03345063 0.00035050
0.04289884 -0.04148838 0.00042052
0.05909589 -0.05646176 -0.00090035
0.05011763 -0.03491807 0.00025046
0.05537122 -0.05266236 -0.00045908
0.05153394 -0.03943642 0.00043551
0.05707203 -0.04573288 0.00071843
0.06070551 -0.05300665 0.00013719
0.05120248 -0.04113172 0.00054299
0.04660213 -0.03290034 0.00014675
0.04997883 -0.03929347 0.00046181
0.06233703 -0.04848821 0.00092731
0.06318322 -0.04975341 0.00085812
0.05733810 -0.04764482 0.00066730
0.05664164 -0.05081585 0.00019882
0.06292682 -0.05926440 -0.00097507
0.05440131 -0.05213183 -0.00055508
0.05570905 -0.04528323 0.00075198
0.06071490 -0.04519026 0.00082328
0.04884801 -0.04754677 -0.00037031
0.06068773 -0.04515547 0.00084070
0.04978511 -0.04708129 0.00008748
0.05387135 -0.04230689 0.00069469
0.04764776 -0.04612999 -0.00025285
0.06138805 -0.05568521 -0.00024002
0.06959454 -0.05494737 0.00097644
0.06111893 -0.05614526 -0.00041523
0.05070056 -0.03963970 0.00058977
0.04969956 -0.04754342 -0.00015559
0.05945056 -0.04427990 0.00074330
0.05760022 -0.04473556 0.00060580
0.04375936 -0.03784163 0.00038616
0.06030482 -0.05670904 -0.00074870
0.05914190 -0.04711573 0.00068828
0.04769130 -0.04377408 0.00032221
0.04879664 -0.04525467 -0.00003979
0.04474182 -0.03483337 0.00032089
0.06563708 -0.05802335 0.00006246
0.05464367 -0.05313136 -0.00069856
0.06339647 -0.05612764 -0.00021815
0.05512872 -0.03971736 0.00060545
0.04704997 -0.03925120 0.00033699
0.04391966 -0.04114370 0.00019314
0.05676123 -0.04601843 0.00064205
0.04952178 -0.03686793 0.00035337
0.04739840 -0.04359579 0.00010851
0.06095504 -0.04548663 0.00089244
0.06829955 -0.05272829 0.00101901
0.04960227 -0.03438370 0.00025419
0.04124671 -0.03971750 0.00046884
0.04967457 -0.04501655 0.00033987
0.06465784 -0.05885883 -0.00060963
0.04311754 -0.04086646 0.00004904
0.05100581 -0.04851629 -0.00033489
0.05800489 -0.04608964 0.00058520
0.04569128 -0.04652395 -0.00043407
0.06142748 -0.05609937 -0.00057221
0.06287121 -0.05087039 0.00066462
0.06029352 -0.04468401 0.00071060
0.06294668 -0.05830359 -0.00080159
0.04755735 -0.04784329 -0.00047286
0.06164595 -0.04609271 0.00084722
0.05580024 -0.04032118 0.00059450
0.05429320 -0.04512842 0.00034259
0.04840786 -0.04202023 0.00024028
0.05400384 -0.05156251 -0.00057095
0.05027154 -0.04681571 0.00020789
0.05394099 -0.04219989 0.00072246
0.06746520 -0.05425422 0.00090119
0.05410285 -0.04531877 0.00063547
0.05095479 -0.04021266 0.00042899
0.05187038 -0.03717700 0.00048236
0.06046634 -0.04787533 0.00067592
0.05404195 -0.04398525 0.00075924
0.04900475 -0.04004604 0.00063345
0.06521499 -0.05411613 0.00067208
0.06599687 -0.05545322 0.00041262
0.05862254 -0.04407368 0.00072297
0.06618156 -0.05352773 0.00079967
0.04608112 -0.03791262 0.00052710
0.06325194 -0.05523197 0.00018574
0.06878187 -0.05412036 0.00090306
0.06745072 -0.05649963 0.00048744
0.06747548 -0.05396780 0.00084161
0.06295077 -0.05890102 -0.00086846
0.05444047 -0.04605595 0.00059729
0.05707893 -0.04850551 0.00050703
0.04976908 -0.04640790 0.00007765
0.04408051 -0.04445595 -0.00036005
0.04877760 -0.03346832 0.00023695
0.05661922 -0.04293879 0.00060156
0.04695680 -0.04532321 0.00004675
0.05793545 -0.04848140 0.00034848
0.06107477 -0.04544430 0.00070535
0.06635759 -0.05075271 0.00099188
0.06751571 -0.05715199 0.00046544
0.05793868 -0.04279932 0.00065981
0.04973342 -0.04633633 0.00018645
0.05721508 -0.05313583 -0.00051669
0.04203198 -0.04286865 -0.00018125
0.06492498 -0.05170087 0.00076111
0.05036055 -0.04199804 0.00036536
0.06188838 -0.05770893 -0.00079869
0.05382727 -0.04518975 0.00064713
0.05851218 -0.05315683 -0.00004070
0.04409247 -0.03788659 0.00031316
0.05011161 -0.03547945 0.00026182
0.06604436 -0.05133219 0.00095640
0.05284373 -0.04890778 -0.00019438
0.05562149 -0.04313812 0.00058264
0.05662131 -0.04620664 0.00064727
0.06380020 -0.05169554 0.00065999
0.05477085 -0.04124152 0.00063860
0.06397269 -0.05150672 0.00071020
0.05006242 -0.04396435 0.00050658
0.04470254 -0.03768369 0.00061111
0.06009168 -0.05038807 0.00032864
0.04002242 -0.03999615 0.00005606
0.06284517 -0.05689259 -0.00029535
0.04409847 -0.03465331 0.00041282
0.04743582 -0.04741415 -0.00048032
0.06755835 -0.05239473 0.00096940
0.05319117 -0.05194061 -0.00068801
0.05711977 -0.05495674 -0.00087177
0.04178462 -0.04251748 -0.00005981
0.04665159 -0.03837863 0.00046739
0.05714722 -0.04522293 0.00070026
0.05472927 -0.03987416 0.00056268
0.06416537 -0.05736449 -0.00008212
0.06679334 -0.05171107 0.00089761
0.04973514 -0.04389971 0.00046115
0.05581068 -0.05327701 -0.00089349
0.06120871 -0.05024412 0.00070727
0.04275007 -0.03722492 0.00040659
0.06525486 -0.06051299 -0.00100966
0.06326595 -0.05268383 0.00040103
0.06735953 -0.05802365 -0.00001509
0.06257306 -0.04810711 0.00084325
0.05098864 -0.04098580 0.00061441
0.04734463 -0.04447576 0.00022777
0.06070801 -0.05490926 -0.00035112
0.05527565 -0.05207522 -0.00035025
0.04757948 -0.04200362 0.00031023
0.06625240 -0.05739324 0.00030932
0.05183579 -0.04053824 0.00045960
0.04131471 -0.04203499 0.00014979
0.05649047 -0.04603523 0.00061554
0.04639231 -0.03662195 0.00056873
0.05792802 -0.05275813 -0.00026450
0.05317072 -0.04482583 0.00041755
0.05777626 -0.04958214 0.00043386
0.04845045 -0.04781628 -0.00030879
0.05202432 -0.03704024 0.00038043
0.05571576 -0.04851801 0.00013229
0.06043124 -0.05459352 -0.00011369
0.06679014 -0.05405853 0.00064352
0.05183321 -0.03634185 0.00037275
0.04654310 -0.04171435 0.00059786
0.04917460 -0.04571621 0.00020441
0.05140338 -0.04306470 0.00063972
0.06162497 -0.04843530 0.00069403
0.06279142 -0.05626594 -0.00031912
0.05652175 -0.04301404 0.00067392
0.05245597 -0.04069735 0.00047013
0.06818469 -0.05459998 0.00084069
0.04544103 -0.03304985 0.00029814
0.04745199 -0.03805439 0.00069664
0.05889456 -0.04391620 0.00075177
0.05089984 -0.05029206 -0.00064844
0.05966954 -0.04497026 0.00074050
0.06103653 -0.04878364 0.00073573
0.05428976 -0.04587555 0.00068208
0.05847931 -0.04782297 0.00073541
0.04592000 -0.04673407 -0.00033426
0.05148745 -0.03966010 0.00066459
0.06492794 -0.05074155 0.00086399
0.04351861 -0.04217207 -0.00008941
0.06017044 -0.05041323 0.00041122
0.05995450 -0.04698980 0.00073650
0.03846372 -0.04106417 -0.00010969
0.04454289 -0.04553713 -0.00029073
0.05441964 -0.03900461 0.00042851
0.06017761 -0.05069268 0.00051778
0.05048028 -0.04997063 -0.00069392
0.04201359 -0.04082317 0.00027373
0.04404619 -0.03758334 0.00043055
0.06358201 -0.05937171 -0.00088513
0.05639412 -0.04308277 0.00058551
0.05667037 -0.05049904 0.00025392
0.06253906 -0.05692380 -0.00031764
0.06277012 -0.05845074 -0.00102103
0.05305457 -0.04283173 0.00067624
0.06103551 -0.05774273 -0.00091728
0.05995401 -0.05403707 -0.00023778
0.05326894 -0.04330609 0.00065592
0.04519981 -0.03349081 0.00040109
0.06423394 -0.05158483 0.00075382
0.05377586 -0.04742770 0.00001554
0.04606452 -0.03504424 0.00032314
0.06362280 -0.05581930 0.00002841
0.05472109 -0.05307370 -0.00078742
0.06033214 -0.04911962 0.00075151
0.05040895 -0.04622152 0.00027174
0.06361330 -0.05539065 0.00020777
0.05434080 -0.05274363 -0.00064062
0.05151341 -0.04421800 0.00050592
0.06808887 -0.05235354 0.00108173
0.04101386 -0.03864467 0.00024499
0.05934043 -0.05650508 -0.00094393
0.04275233 -0.04126808 0.00034758
0.05262450 -0.04627003 0.00016076
0.05570932 -0.04019702 0.00060642
0.06684485 -0.05288716 0.00093362
0.05144416 -0.03716771 0.00041026
0.04795708 -0.03270758 0.00012937
0.06785857 -0.05324669 0.00108628
0.04142876 -0.03722805 0.00029729
0.05509497 -0.04908149 -0.00001589
0.05693638 -0.04449946 0.00067412
0.05565858 -0.04535864 0.00055971
0.04031877 -0.04245263 -0.00007751
0.03979943 -0.03999147 0.00033422
0.06204887 -0.05500169 -0.00017867
0.04046628 -0.04011278 0.00000479
0.06507737 -0.05385558 0.00068992
0.04715064 -0.04093955 0.00021700
0.06422192 -0.05755273 -0.00030502
0.04043760 -0.04031777 0.00003379
0.04929426 -0.04179891 0.00046103
0.05311868 -0.05194801 -0.00070433
0.06385421 -0.05993113 -0.00107704
0.05463191 -0.04394860 0.00065001
0.06058949 -0.04627989 0.00073135
0.05041110 -0.04163620 0.00044611
0.05807147 -0.04255346 0.00065840
0.06169170 -0.05786709 -0.00104752
0.04679793 -0.03728257 0.00039398
0.04883236 -0.04246942 0.00018891
0.04468882 -0.03491873 0.00051736
0.06397415 -0.05202419 0.00085737
0.04706611 -0.03342880 0.00021941
0.06609572 -0.05320360 0.00077892
0.04504510 -0.04292572 0.00027202
0.06199586 -0.04662307 0.00097870
0.04757018 -0.03588676 0.00043851
0.04892514 -0.04340169 0.00019503
0.05166498 -0.03979549 0.00056242
0.05134856 -0.04633886 0.00032971
0.05659463 -0.05423447 -0.00069344
0.05512788 -0.04554179 0.00068622
0.05382592 -0.04172880 0.00066753
0.06766034 -0.05437476 0.00084677
0.05236215 -0.05137832 -0.00081314
0.05890294 -0.05110446 0.00020843
0.06799389 -0.05247612 0.00105241
0.06444105 -0.05348024 0.00050238
0.05565592 -0.04470534 0.00076427
0.06392282 -0.05780711 -0.00048679
0.06439966 -0.05839390 -0.00050166
0.05113307 -0.04268943 0.00035638
0.05011289 -0.04380488 0.00018284
0.05145858 -0.04606087 0.00013384
0.04323769 -0.03844805 0.00062345
0.06077473 -0.04802362 0.00079715
0.04249619 -0.04337570 -0.00020726
0.06456590 -0.05829340 -0.00052700
0.06267788 -0.05870572 -0.00089747
0.06225044 -0.05866339 -0.00101339
0.05903731 -0.05402042 -0.00026023
0.05052804 -0.04560645 0.00034041
0.04497751 -0.03525794 0.00034159
0.06139129 -0.04940200 0.00078868
0.04543304 -0.04326843 -0.00003654
0.04621266 -0.04097177 0.00013325
0.05242679 -0.04109575 0.00066488
0.04267358 -0.03841633 0.00033177
0.05099987 -0.04680260 0.00013985
0.05105660 -0.04823371 -0.00006989
0.06093930 -0.04559807 0.00074744
0.05046812 -0.04603808 0.00031493
0.05336093 -0.04957784 -0.00029835
0.05506971 -0.04079108 0.00062558
