ply
format ascii 1.0
element vertex 1438
property float x
property float y
property float z
end_header
0.06030998 0.05495694 0.00026537
0.04776678 0.04005704 0.00008211
0.05011079 0.05202788 0.00083704
0.05832897 0.05590523 0.00058398
0.03436592 0.03761214 0.00029359
0.05496404 0.04530250 -0.00063451
0.05242478 0.04858415 0.00060028
0.05138962 0.03980373 -0.00073335
0.05766435 0.05465100 0.00056736
0.05672464 0.05879672 0.00106443
0.04722847 0.05161218 0.00081022
0.03220220 0.03935413 0.00009189
0.05738123 0.05971506 0.00123887
0.03951156 0.04537162 0.00058849
0.04939442 0.04071836 -0.00031960
0.06217142 0.05309135 -0.00057492
0.03709100 0.03548819 0.00046569
0.05190877 0.04131703 -0.00039311
0.05394707 0.05188492 0.00053874
0.04451544 0.04947907 0.00075334
0.04547865 0.03355077 -0.00031367
0.05285586 0.05412392 0.00092026
0.03150844 0.03883257 0.00010501
0.05224921 0.05440222 0.00099667
0.04744851 0.03937055 0.00013297
0.05940733 0.04946427 -0.00083942
0.04846202 0.05255829 0.00083882
0.04173448 0.03512674 0.00012195
0.05450229 0.05027780 0.00049079
0.05517156 0.04396262 -0.00085568
0.05936287 0.05957600 0.00086890
0.05282132 0.05175470 0.00075823
0.05438464 0.05176703 0.00067147
0.05488869 0.04376834 -0.00085036
0.04539911 0.04156343 0.00058720
0.04687860 0.03563550 -0.00044494
0.04609371 0.03633793 -0.00005729
0.03931892 0.02853988 0.00027277
0.04613630 0.05058343 0.00083955
0.05202604 0.05549394 0.00103820
0.03375065 0.04058603 0.00023693
0.05335621 0.04529443 -0.00028447
0.04346152 0.03205122 -0.00024038
0.05499877 0.04379081 -0.00083870
0.04958919 0.04439152 0.00032275
0.03784370 0.03447946 0.00031383
0.04707952 0.04872331 0.00065900
0.04013961 0.03761598 0.00038791
0.04167521 0.03610568 0.00020451
0.04643341 0.04381255 0.00042434
0.05313301 0.04180505 -0.00082393
0.05549252 0.05693702 0.00095863
0.06158007 0.05417102 -0.00050446
0.06172024 0.05141644 -0.00102266
0.05021054 0.04674930 0.00035314
0.04909601 0.04351122 0.00017072
0.05886179 0.04988240 -0.00065587
0.05713416 0.05965258 0.00112332
0.03459410 0.03384077 0.00068365
0.06247125 0.05536873 -0.00036112
0.04664806 0.05102509 0.00080986
0.05577484 0.04448100 -0.00087569
0.05398771 0.05643137 0.00104157
0.04217208 0.04715568 0.00057980
0.05546767 0.05325590 0.00054164
0.03629014 0.03987778 0.00034947
0.05013159 0.03859728 -0.00055492
0.05244176 0.04501378 -0.00027373
0.04093204 0.02884393 -0.00012613
0.05243108 0.04302270 -0.00052462
0.03313623 0.04017563 0.00019086
0.05868670 0.05262543 -0.00013850
0.04587902 0.04567720 0.00050971
0.04808301 0.04998687 0.00069465
0.03882890 0.03832212 0.00041666
0.04471557 0.04941042 0.00074761
0.05812964 0.04711456 -0.00096881
0.03658108 0.03168038 0.00037486
0.05211448 0.05405828 0.00080141
0.04354703 0.04753394 0.00068430
0.04132996 0.03164074 0.00033094
0.04880770 0.04177595 -0.00014165
0.04741813 0.03556712 -0.00047290
0.04956734 0.04558636 0.00051418
0.03399532 0.03740171 0.00039317
0.04535665 0.03562434 0.00009260
0.05793242 0.05132770 -0.00019233
0.04766106 0.03744518 -0.00016777
0.05358908 0.04288783 -0.00060302
0.05221764 0.04373663 -0.00012475
0.04706268 0.03639629 -0.00046840
0.05634007 0.05899677 0.00112197
0.04771956 0.04636489 0.00080078
0.06107037 0.05505103 0.00007897
0.05777786 0.05473850 0.00048214
0.06318487 0.05361798 -0.00093601
0.05464681 0.05590481 0.00085122
0.04455954 0.03494954 -0.00003176
0.05073003 0.05412914 0.00097285
0.06080096 0.05797309 0.00053595
0.05511731 0.04624905 -0.00054618
0.04572220 0.04046070 0.00010313
0.03637183 0.03454927 0.00073865
0.04667899 0.03691097 -0.00025323
0.04492273 0.03387472 -0.00033570
0.03845418 0.03007053 0.00052113
0.05526105 0.04579551 -0.00048859
0.05414015 0.05300808 0.00081058
0.05712961 0.04913873 -0.00019838
0.03732791 0.03130647 0.00059416
0.04809866 0.04930847 0.00066581
0.04799514 0.04150228 0.00028971
0.04205644 0.03699465 0.00023035
0.05421615 0.05061834 0.00028688
0.06292145 0.05737095 -0.00006579
0.04185071 0.03433545 0.00040423
0.03492850 0.03586754 0.00038873
0.04765056 0.05079629 0.00082272
0.06062375 0.05523073 0.00024290
0.04156873 0.03950316 0.00046695
0.06136636 0.06011199 0.00080623
0.04257865 0.03536670 0.00008155
0.04586886 0.04307025 0.00057775
0.03826776 0.03988374 0.00059025
0.05746733 0.05229157 0.00030752
0.04735830 0.03907565 -0.00024935
0.04436974 0.04377132 0.00047959
0.03570340 0.04114988 0.00032465
0.05978084 0.06081124 0.00106068
0.05328725 0.05534207 0.00092928
0.03832574 0.03880708 0.00046536
0.05663145 0.05407349 0.00062616
0.03758145 0.04254005 0.00048206
0.04372691 0.04407638 0.00072674
0.05218735 0.04892831 0.00036640
0.05269979 0.04802893 0.00016513
0.04041639 0.04250609 0.00066868
0.05001073 0.04190761 -0.00022694
0.05625013 0.05054301 -0.00002345
0.05171506 0.04558690 -0.00006103
0.04595522 0.03594769 -0.00025588
0.05979830 0.04882959 -0.00103363
0.05384367 0.04266617 -0.00077322
0.04245595 0.03455351 0.00028784
0.04709885 0.04111727 0.00007116
0.03205402 0.03886188 0.00003963
0.05240943 0.04457763 -0.00034699
0.03342033 0.03883932 0.00024786
0.06389882 0.05621004 -0.00026540
0.04009541 0.03696540 0.00032748
0.05926530 0.06013561 0.00095596
0.06052675 0.05331174 -0.00007960
0.05327759 0.05260447 0.00086689
0.05537982 0.05822454 0.00111858
0.04143213 0.04241779 0.00044127
0.05410346 0.04333482 -0.00089162
0.05861567 0.05216130 -0.00011459
0.05888723 0.06098153 0.00125788
0.06494341 0.05631521 -0.00084824
0.03456519 0.03587962 0.00052701
0.06086211 0.05382751 -0.00001449
0.04851487 0.05165760 0.00083064
0.03382513 0.04077377 0.00011906
0.06021605 0.05889825 0.00068007
0.04771554 0.04167491 0.00040704
0.04484227 0.03591911 -0.00022045
0.05905465 0.04959693 -0.00076419
0.04034725 0.03956061 0.00058182
0.05656288 0.04923865 0.00001879
0.05493611 0.04765675 -0.00026351
0.05426443 0.04322130 -0.00075018
0.04918844 0.03827481 -0.00061043
0.06065577 0.05637051 0.00046635
0.03755280 0.03459420 0.00036153
0.06147099 0.05064286 -0.00104552
0.06124394 0.05856264 0.00076458
0.03285732 0.03774566 0.00030741
0.03779562 0.04026437 0.00046612
0.03789396 0.04176365 0.00051626
0.03215022 0.03939900 0.00008915
0.05089111 0.03955006 -0.00068426
0.06142976 0.05154147 -0.00084148
0.04576585 0.03398076 -0.00030946
0.04452303 0.04162753 0.00063809
0.06342320 0.05336928 -0.00089494
0.04226970 0.03886063 0.00024989
0.05949658 0.05038144 -0.00046938
0.05305846 0.05626262 0.00084286
0.04968901 0.03833866 -0.00046256
0.06165716 0.05670275 0.00027996
0.03766370 0.03035605 0.00067910
0.04788155 0.04793904 0.00082952
0.05970898 0.05246929 -0.00030841
0.05191906 0.04032399 -0.00065881
0.04543324 0.03931572 0.00040243
0.03867021 0.04256690 0.00059822
0.04680728 0.04187248 0.00053371
0.05653944 0.05127419 0.00010722
0.05931002 0.05357070 0.00022932
0.03585792 0.04017184 0.00043846
0.04207967 0.03917740 0.00030982
0.04651414 0.04596269 0.00056266
0.04866723 0.05276156 0.00090567
0.03613298 0.03984976 0.00060437
0.05365141 0.05131084 0.00072948
0.05799330 0.06025036 0.00115523
0.06216406 0.05137440 -0.00104896
0.04827407 0.04250551 0.00002008
0.04004072 0.03900993 0.00043834
0.04514596 0.03866565 0.00033140
0.04626013 0.03527383 -0.00041506
0.04581802 0.03694336 -0.00022965
0.04242602 0.03267217 -0.00020635
0.04208018 0.02979739 -0.00023527
0.04456218 0.03681102 0.00017209
0.05474856 0.05104350 0.00056226
0.03490481 0.03745066 0.00056130
0.05524894 0.05207897 0.00043734
0.03928524 0.03440494 0.00031185
0.04282841 0.04774703 0.00069746
0.04436034 0.04921694 0.00077706
0.06007260 0.05936679 0.00088407
0.03944683 0.03162083 0.00047572
0.06047294 0.05842020 0.00055318
0.03779995 0.03963638 0.00049488
0.04934214 0.04233421 0.00012175
0.05944305 0.04848965 -0.00101918
0.06572903 0.05526583 -0.00114202
0.04288935 0.03910967 0.00024283
0.03946306 0.02954479 0.00029170
0.03835465 0.04436357 0.00041011
0.04223925 0.04133763 0.00049244
0.05678934 0.05219566 0.00045385
0.04379115 0.03227156 -0.00012219
0.05020036 0.05246017 0.00076359
0.04994539 0.05031493 0.00079116
0.04956880 0.04036692 -0.00013503
0.05720933 0.05494468 0.00079142
0.04975127 0.04698122 0.00040362
0.04537442 0.03661413 0.00009696
0.05069315 0.04694879 0.00054927
0.05165805 0.05531670 0.00103312
0.06002246 0.05481368 0.00033133
0.05231377 0.05139422 0.00081812
0.03309534 0.03599655 0.00051310
0.05020627 0.04819436 0.00047624
0.03526814 0.04082853 0.00040858
0.05310017 0.05287652 0.00086004
0.03743259 0.04016407 0.00056541
0.04163211 0.03575518 0.00018853
0.05161667 0.05450892 0.00091061
0.05037369 0.04394696 -0.00001349
0.03953006 0.03797670 0.00044558
0.04748257 0.04082946 0.00022222
0.04029850 0.04478070 0.00057585
0.03997830 0.04565476 0.00046736
0.04212292 0.03092554 0.00009714
0.04327124 0.03334155 0.00014163
0.05771119 0.05798826 0.00099522
0.03528262 0.03763766 0.00057941
0.04287820 0.03101561 -0.00023440
0.05627331 0.05179205 0.00042112
0.03954997 0.03732646 0.00061044
0.04163550 0.03905044 0.00042715
0.05928142 0.05259957 0.00015702
0.03666675 0.04198385 0.00035521
0.05705647 0.05837990 0.00109346
0.03486561 0.03641800 0.00042102
0.03638090 0.04274419 0.00040007
0.05531743 0.05816919 0.00100626
0.04735023 0.04199763 0.00038531
0.03875711 0.03000533 0.00041886
0.04852187 0.04691068 0.00069457
0.03688290 0.03245654 0.00071140
0.03378572 0.04067478 0.00025218
0.05024859 0.04446554 0.00005362
0.05741378 0.05373507 0.00036958
0.05021402 0.04476096 0.00011648
0.05398766 0.05468111 0.00090732
0.03167311 0.03811621 0.00017447
0.04637608 0.03446042 -0.00045532
0.04143422 0.03358728 -0.00001781
0.03342762 0.03561587 0.00036631
0.06185585 0.05617682 0.00031308
0.04930613 0.05048882 0.00068179
0.03339255 0.04030766 0.00015090
0.05921111 0.05624425 0.00063901
0.05638628 0.05543546 0.00067617
0.05517659 0.05318452 0.00049012
0.03607144 0.03833042 0.00049132
0.04755978 0.04028203 -0.00012407
0.05381396 0.04421137 -0.00050282
0.06142519 0.05072465 -0.00099106
0.04242617 0.04013730 0.00040455
0.05837953 0.04930301 -0.00072322
0.05797519 0.04939428 -0.00059065
0.05674484 0.04861312 -0.00047006
0.04380329 0.04310271 0.00073648
0.03871371 0.03173136 0.00014818
0.04860015 0.04636449 0.00062847
0.05776582 0.04668589 -0.00100199
0.05728100 0.05962792 0.00114146
0.04675010 0.05049347 0.00076317
0.03588868 0.04242807 0.00039438
0.04384869 0.03555718 0.00021980
0.05076639 0.05307347 0.00072651
0.05763991 0.05463354 0.00065595
0.05638402 0.04908186 -0.00024605
0.03843187 0.03057511 0.00029083
0.03497079 0.04162807 0.00018111
0.04772349 0.03967270 0.00009887
0.05968796 0.06100918 0.00114918
0.04528931 0.03341551 -0.00036259
0.05385197 0.05443305 0.00081127
0.04562881 0.03589011 -0.00033602
0.05574600 0.05818338 0.00108075
0.04637294 0.03781071 -0.00012733
0.05828731 0.05862018 0.00087084
0.04950779 0.04843416 0.00075999
0.05579582 0.05636163 0.00090506
0.04825497 0.05249914 0.00094704
0.05842375 0.05526087 0.00044022
0.04514679 0.04237789 0.00032352
0.05141422 0.03986881 -0.00067433
0.05996585 0.04902930 -0.00103360
0.03991288 0.03388782 0.00051163
0.05018989 0.03844271 -0.00063618
0.05500389 0.05056145 0.00019528
0.04369487 0.04101742 0.00060921
0.04952946 0.04350638 0.00021590
0.05351900 0.04526789 -0.00041163
0.05010726 0.04060927 -0.00029375
0.03693395 0.04184742 0.00040473
0.05949846 0.06047606 0.00113722
0.03914810 0.04379397 0.00043222
0.03783738 0.04161506 0.00035542
0.05671366 0.05378858 0.00051758
0.03259991 0.03650617 0.00024560
0.05373220 0.04490177 -0.00046708
0.06167057 0.05263901 -0.00081153
0.03332261 0.03648910 0.00019685
0.05434257 0.04782799 0.00020059
0.04096499 0.03964146 0.00040459
0.05362638 0.04756081 -0.00006487
0.03502191 0.04176199 0.00031394
0.05133895 0.04684939 0.00049708
0.04061786 0.04344416 0.00060959
0.03579935 0.03818330 0.00029426
0.04640198 0.03694536 -0.00026008
0.05923780 0.06127950 0.00106998
0.04778347 0.03666236 -0.00054206
0.04150239 0.03533027 0.00060984
0.05477289 0.04533794 -0.00057892
0.03424107 0.03693377 0.00047776
0.06033224 0.04930864 -0.00091470
0.06226869 0.05236829 -0.00101402
0.04623188 0.03552098 -0.00014393
0.05441569 0.05244118 0.00078416
0.03757777 0.03845969 0.00045334
0.05372228 0.04235575 -0.00073959
0.05903915 0.05129593 -0.00052030
0.04737592 0.05159147 0.00084467
0.05754764 0.04720582 -0.00071104
0.05276041 0.04354921 -0.00050877
0.03859704 0.03885476 0.00047552
0.04027744 0.03460499 0.00019726
0.04200043 0.04489855 0.00061628
0.04468328 0.03348499 -0.00039331
0.04759503 0.03582553 -0.00041449
0.05927647 0.06067820 0.00108598
0.05445519 0.04450148 -0.00056945
0.04858675 0.04808343 0.00074353
0.03975222 0.04279602 0.00046263
0.05420953 0.04280262 -0.00080418
0.06407700 0.05584096 -0.00039779
0.05712160 0.05173141 -0.00000242
0.05667268 0.05380533 0.00067618
0.04023785 0.04208850 0.00040837
0.05470937 0.05357139 0.00073410
0.04998121 0.05321146 0.00087350
0.04518255 0.03933089 0.00041514
0.05239996 0.05223301 0.00081517
0.04382894 0.04767843 0.00066571
0.04323886 0.03726498 0.00049296
0.05364425 0.05221682 0.00076997
0.05077755 0.04230129 -0.00007086
0.03955292 0.04288425 0.00049745
0.03981156 0.04442566 0.00043801
0.04055753 0.03915194 0.00033829
0.04830874 0.03850751 -0.00035800
0.03827857 0.03612261 0.00038021
0.06383200 0.05446842 -0.00074363
0.04760907 0.05186729 0.00084617
0.04289727 0.03880936 0.00029526
0.05124695 0.04200063 -0.00044911
0.05134235 0.05032253 0.00083325
0.06274305 0.05380785 -0.00047498
0.04874734 0.04831724 0.00079753
0.05155698 0.04246748 -0.00042977
0.03648575 0.03937241 0.00047484
0.04292625 0.04002176 0.00034854
0.06172365 0.05322079 -0.00051871
0.04846218 0.03683651 -0.00051898
0.04651137 0.05103310 0.00087885
0.04253458 0.03875658 0.00037123
0.04763852 0.04910657 0.00085389
0.05991140 0.05353612 0.00011147
0.05421728 0.04903027 0.00007773
0.03388541 0.03648889 0.00048413
0.03314000 0.03814988 0.00032651
0.03611381 0.03785157 0.00055080
0.04088624 0.04310306 0.00049024
0.06091404 0.05456657 0.00002973
0.04090019 0.03408662 0.00055303
0.05292039 0.04366050 -0.00018899
0.04419337 0.04657759 0.00078880
0.05061194 0.05128470 0.00081846
0.04671031 0.04601735 0.00051816
0.04996786 0.03831109 -0.00066154
0.04929458 0.05165692 0.00082196
0.05815251 0.05040351 -0.00016227
0.04166757 0.04106641 0.00048791
0.05499793 0.04674290 -0.00006655
0.04671210 0.04117462 0.00007080
0.06060678 0.05843258 0.00060886
0.05551373 0.05492152 0.00082592
0.03905597 0.03321119 0.00026242
0.06163285 0.05366923 -0.00029095
0.03283322 0.03988060 0.00012628
0.05049256 0.05427546 0.00088577
0.04155835 0.03725629 0.00059985
0.03163814 0.03884282 0.00007805
0.04192176 0.03947432 0.00060431
0.03892452 0.03091387 0.00047502
0.05974036 0.05562490 0.00050873
0.04000871 0.02840692 0.00013450
0.04201742 0.04637695 0.00059217
0.05218607 0.05566488 0.00105462
0.04906316 0.05150847 0.00075882
0.04909819 0.04436254 0.00019447
0.06096972 0.05323914 -0.00022054
0.06318200 0.05482547 -0.00064031
0.05475140 0.05224477 0.00040628
0.04977783 0.03811532 -0.00052105
0.06305354 0.05236321 -0.00110660
0.04670026 0.04517141 0.00040600
0.03242033 0.03557755 0.00045805
0.04687696 0.03700873 -0.00008886
0.04422812 0.03493199 -0.00018796
0.05515180 0.05090240 0.00040308
0.05331965 0.04249508 -0.00060667
0.05966704 0.05562950 0.00046234
0.03739101 0.04269824 0.00048155
0.05646853 0.04600484 -0.00065086
0.04451029 0.04050994 0.00054242
0.04314685 0.04335765 0.00053523
0.04672495 0.03527695 -0.00036185
0.04477367 0.04316634 0.00041912
0.05863433 0.04774170 -0.00097478
0.04093865 0.03678298 0.00027524
0.05781643 0.05890040 0.00093220
0.05010291 0.04171545 -0.00009642
0.03947647 0.03254535 0.00050104
0.03499279 0.04014113 0.00037752
0.04505390 0.04266758 0.00036516
0.05398039 0.05718037 0.00108148
0.03487702 0.04158737 0.00024796
0.04301759 0.04694480 0.00059873
0.05599557 0.04944545 0.00013266
0.06248490 0.05186761 -0.00104003
0.03709109 0.03496574 0.00066143
0.04962547 0.04785204 0.00042297
0.04014119 0.04592636 0.00048723
0.04452646 0.04231553 0.00045174
0.03799092 0.03675944 0.00065106
0.04592642 0.03961504 0.00040953
0.04680974 0.04176899 0.00022466
0.05040357 0.04005187 -0.00052138
0.05651227 0.05921137 0.00115745
0.05378642 0.05041086 0.00059739
0.03977235 0.04550124 0.00051805
0.05598297 0.05393978 0.00053814
0.05173290 0.05214418 0.00095650
0.04616909 0.04720251 0.00072487
0.06545125 0.05505728 -0.00108167
0.03071974 0.03770890 0.00002616
0.03770264 0.04081067 0.00057908
0.03575087 0.03713849 0.00058190
0.03723324 0.03234416 0.00037338
0.04813171 0.05149232 0.00085931
0.03938556 0.04518835 0.00047008
0.03509930 0.04013310 0.00044201
0.06041947 0.05329610 -0.00010852
0.06228089 0.05487337 -0.00028564
0.04607184 0.03672863 -0.00025889
0.03581591 0.04229041 0.00025841
0.04264130 0.03782787 0.00024329
0.06329358 0.05466790 -0.00058850
0.05460827 0.05289026 0.00052580
0.04761535 0.04264539 0.00024423
0.06211478 0.05183356 -0.00110123
0.04102217 0.03956052 0.00074018
0.03790446 0.03210662 0.00025516
0.05972469 0.06087662 0.00111435
0.05512360 0.05328759 0.00075149
0.05642609 0.05332799 0.00061842
0.05909395 0.05945239 0.00096172
0.05696603 0.05100496 0.00000594
0.04424383 0.04680262 0.00081123
0.05368335 0.05651304 0.00095843
0.05691901 0.04961136 -0.00001678
0.05542449 0.05828223 0.00104382
0.04669835 0.04706415 0.00057576
0.05269725 0.04840353 0.00014051
0.03863886 0.04445432 0.00034320
0.05677979 0.05916279 0.00104925
0.04644947 0.04398122 0.00061246
0.05730509 0.04907981 -0.00052006
0.04267954 0.04687984 0.00070177
0.03991879 0.03640956 0.00064026
0.04312622 0.04464871 0.00060608
0.05717549 0.05485983 0.00053122
0.03471172 0.03664664 0.00058580
0.05194691 0.05448984 0.00099423
0.04098056 0.04038047 0.00071721
0.04582925 0.04604011 0.00059988
0.04083016 0.03335732 0.00011538
0.05106588 0.04497241 0.00023657
0.04932238 0.04591171 0.00025543
0.03889608 0.02893910 0.00015483
0.04722516 0.04874155 0.00068348
0.03634827 0.03493514 0.00048791
0.05024197 0.03929025 -0.00050372
0.05332901 0.04200760 -0.00070054
0.05448389 0.05503658 0.00086486
0.05424432 0.05010681 0.00020001
0.04970336 0.04151381 -0.00024374
0.03695493 0.04327855 0.00038987
0.05485382 0.05241765 0.00043585
0.05678659 0.05940950 0.00116540
0.05940970 0.06059680 0.00107831
0.04315233 0.04793072 0.00077807
0.04523330 0.04813437 0.00071473
0.05064485 0.03916623 -0.00065534
0.05352041 0.04739762 0.00021968
0.05576094 0.04622276 -0.00045588
0.04193012 0.03072291 -0.00015227
0.05901983 0.05322235 -0.00006604
0.03224643 0.03821823 0.00018254
0.05053916 0.03902790 -0.00062349
0.05849842 0.06070427 0.00110854
0.05888330 0.05880503 0.00094460
0.05069652 0.03919157 -0.00063157
0.03540174 0.03364401 0.00065720
0.03733215 0.03255208 0.00035764
0.04362288 0.04182893 0.00040858
0.04046223 0.03706869 0.00059040
0.03730184 0.04001910 0.00040314
0.05188140 0.05086882 0.00075967
0.05138708 0.04066185 -0.00065026
0.04658520 0.04770149 0.00063576
0.05282794 0.05334628 0.00070705
0.03742782 0.04187685 0.00041438
0.04307537 0.03689381 0.00007313
0.06007923 0.05675929 0.00036319
0.06271359 0.05549595 -0.00033619
0.03351252 0.04044989 0.00017198
0.04456584 0.04530369 0.00059180
0.04921640 0.04996134 0.00063981
0.03535827 0.03902582 0.00031291
0.03799045 0.03836652 0.00047881
0.05968768 0.05602243 0.00032836
0.04700949 0.04555553 0.00067986
0.05501849 0.05795799 0.00107069
0.04336307 0.04227361 0.00044768
0.05560651 0.05853604 0.00099367
0.03777865 0.03893558 0.00040302
0.04888901 0.04360002 0.00037962
0.05243876 0.05222413 0.00067052
0.04732530 0.03556774 -0.00049196
0.04638471 0.03771353 -0.00022354
0.06547978 0.05499723 -0.00104303
0.05822459 0.04773681 -0.00083683
0.03757446 0.03828278 0.00058592
0.05908756 0.05937532 0.00080909
0.06015439 0.05586695 0.00043639
0.03968476 0.04426379 0.00056470
0.05366179 0.05445806 0.00087070
0.05976590 0.04986902 -0.00084680
0.04159996 0.03289854 -0.00003112
0.03903371 0.03682278 0.00039749
0.04816343 0.04136057 0.00026738
0.04197188 0.04320023 0.00070318
0.03677205 0.04304361 0.00032707
0.05796950 0.05931587 0.00100970
0.04852823 0.05243196 0.00083406
0.05882028 0.04778574 -0.00105134
0.03899093 0.04044224 0.00062533
0.04020814 0.03846863 0.00038482
0.05087125 0.04868999 0.00044051
0.05646007 0.05908379 0.00108644
0.05494774 0.04987035 0.00040174
0.04908435 0.05305907 0.00088662
0.04602180 0.03495735 -0.00015146
0.03507072 0.03958241 0.00034655
0.05106915 0.04860862 0.00038265
0.06374167 0.05370149 -0.00106851
0.05950020 0.04851111 -0.00107301
0.04196465 0.02984360 -0.00019614
0.04487797 0.04978711 0.00072356
0.04150159 0.04696993 0.00060523
0.04539831 0.04197960 0.00059431
0.03925526 0.03641661 0.00080478
0.06355550 0.05434747 -0.00064391
0.03942844 0.03746113 0.00037794
0.05581478 0.05776501 0.00108993
0.06040113 0.05473974 0.00016586
0.03929245 0.03971201 0.00053748
0.05425310 0.05674197 0.00097844
0.06120786 0.05480444 -0.00016820
0.05319578 0.04412602 -0.00015002
0.05363909 0.05676841 0.00100934
0.04179925 0.03290912 0.00024161
0.04495049 0.04987697 0.00070832
0.03660224 0.03723321 0.00068443
0.04719794 0.04384161 0.00063817
0.04628409 0.03445669 -0.00039248
0.04132051 0.04487420 0.00064751
0.04812880 0.04935226 0.00076197
0.05198652 0.04981482 0.00072057
0.04208339 0.03536289 0.00009983
0.05597191 0.05748561 0.00105758
0.06008802 0.05420598 0.00019422
0.04465211 0.03762914 0.00023830
0.04437505 0.04108909 0.00065946
0.05196446 0.05484456 0.00094123
0.03800219 0.03913146 0.00059217
0.04367573 0.04880161 0.00068840
0.05184962 0.05484572 0.00096778
0.04436599 0.04468441 0.00056389
0.06242606 0.05577657 -0.00032090
0.03461059 0.03851422 0.00031506
0.03805836 0.03565506 0.00073899
0.05284039 0.04644856 0.00017400
0.04635296 0.03445313 -0.00038382
0.06062524 0.05380432 -0.00027753
0.05577966 0.05819033 0.00106046
0.05074631 0.04458306 -0.00006486
0.04294677 0.04816732 0.00067097
0.03518481 0.03885792 0.00037831
0.04565308 0.04746553 0.00078275
0.04449828 0.03630072 0.00023804
0.04458089 0.04140147 0.00035590
0.05534257 0.05554198 0.00093406
0.05647992 0.05676145 0.00083253
0.05460894 0.04866121 0.00023673
0.03754196 0.03987774 0.00039236
0.04310060 0.04393741 0.00065205
0.05945150 0.05056045 -0.00070004
0.04178270 0.03317963 0.00033513
0.05509377 0.05069663 0.00043340
0.04860087 0.03861670 -0.00020038
0.04132985 0.04684537 0.00064431
0.04626617 0.03935198 -0.00002225
0.05968650 0.05038848 -0.00053872
0.04289919 0.04807384 0.00064787
0.04888270 0.04611378 0.00069737
0.03704486 0.03418021 0.00035452
0.04494819 0.04008211 0.00021017
0.05526863 0.05792175 0.00110986
0.05389507 0.05232044 0.00084175
0.05128715 0.05456240 0.00098270
0.03478803 0.03561542 0.00027625
0.05415929 0.05417715 0.00092394
0.05997038 0.05123616 -0.00074168
0.04542930 0.03616698 0.00010409
0.05090528 0.04797541 0.00038731
0.06487231 0.05438231 -0.00117814
0.04856199 0.04327722 0.00053085
0.05796971 0.05700297 0.00076691
0.05534707 0.04848427 -0.00026534
0.03829566 0.03775548 0.00063717
0.06257547 0.05202373 -0.00104826
0.05286150 0.05118261 0.00053265
0.06403469 0.05494946 -0.00089661
0.04216127 0.03385381 -0.00003293
0.04257775 0.04170361 0.00049358
0.05189310 0.04311638 -0.00014623
0.04046498 0.03539602 0.00059344
0.03965970 0.03026661 0.00032346
0.05918333 0.05735130 0.00065252
0.04670126 0.04999865 0.00077545
0.04672997 0.03609259 -0.00027803
0.05763359 0.05323611 0.00043793
0.06159113 0.05957804 0.00086094
0.03170620 0.03899584 0.00006133
0.04404962 0.04162192 0.00071004
0.04993059 0.04351675 0.00028142
0.04885690 0.04537366 0.00035490
0.05158596 0.05502638 0.00106447
0.04521876 0.04310802 0.00038217
0.04219265 0.03318462 0.00025746
0.04388859 0.03978059 0.00025574
0.04822753 0.04514037 0.00056130
0.04126829 0.03668552 0.00036175
0.05876288 0.04798100 -0.00087253
0.06288649 0.05807034 0.00017676
0.05303613 0.05443417 0.00078377
0.04312077 0.03403575 0.00022508
0.05748076 0.04908096 -0.00058019
0.05871049 0.05929920 0.00094631
0.04896570 0.04039173 0.00012183
0.03762335 0.03048663 0.00025217
0.04204463 0.02989920 -0.00007927
0.04994046 0.04935446 0.00067709
0.04385835 0.03872907 0.00012753
0.04586954 0.04734826 0.00078997
0.04182467 0.04671337 0.00055347
0.04637107 0.03456476 -0.00046858
0.04502972 0.04054896 0.00059276
0.06258811 0.05232902 -0.00102633
0.06126061 0.05498479 0.00007783
0.03867007 0.04475876 0.00047922
0.05769362 0.04919668 -0.00058190
0.04388432 0.04796563 0.00073727
0.04782345 0.04725588 0.00055637
0.05298022 0.04361324 -0.00036127
0.04454383 0.03264657 -0.00030734
0.04580014 0.03599944 -0.00005821
0.05911104 0.04824732 -0.00092442
0.04788191 0.03795850 -0.00038298
0.05889886 0.05654327 0.00077248
0.04989003 0.04208921 0.00000581
0.05972405 0.05533015 0.00025123
0.05905154 0.05480318 0.00019178
0.05595427 0.05425625 0.00082444
0.05265216 0.04125260 -0.00080724
0.04857149 0.04014647 -0.00027541
0.04778629 0.04120051 0.00030304
0.04509496 0.04257466 0.00066149
0.03276251 0.03951652 0.00026047
0.04283385 0.04797192 0.00049545
0.05051562 0.04143825 -0.00044630
0.03295225 0.03943849 0.00020636
0.03885332 0.03554840 0.00033842
0.04477061 0.04962537 0.00078864
0.03885094 0.04397183 0.00048703
0.04497692 0.04590500 0.00071428
0.05663306 0.04789985 -0.00053912
0.03674790 0.03617345 0.00058661
0.04042885 0.03473348 0.00050093
0.05821932 0.05233356 -0.00011238
0.05197842 0.05292561 0.00090091
0.04866530 0.04183071 -0.00006670
0.04629096 0.05081352 0.00084734
0.04656006 0.04795825 0.00073922
0.03756573 0.03800771 0.00073153
0.03717660 0.04072729 0.00050095
0.06238238 0.05168242 -0.00114784
0.04093199 0.04351085 0.00045755
0.04617765 0.05045955 0.00079352
0.04504169 0.04992252 0.00074055
0.05253361 0.04120710 -0.00069669
0.04382838 0.04127989 0.00063248
0.06283934 0.05677358 -0.00005089
0.03909920 0.04055970 0.00063685
0.04216777 0.04610730 0.00056809
0.03972420 0.03839205 0.00041030
0.05447372 0.04460215 -0.00036386
0.04850253 0.03799163 -0.00043219
0.03368651 0.03474791 0.00034871
0.06462905 0.05421366 -0.00116088
0.06268933 0.05600773 -0.00011553
0.03935245 0.04023146 0.00039672
0.04351357 0.03728069 0.00041812
0.04845431 0.03934588 -0.00031505
0.05268736 0.04123693 -0.00082379
0.04503608 0.03891823 0.00010293
0.04523354 0.04742358 0.00065982
0.05390891 0.04907168 0.00046041
0.06312748 0.05616313 -0.00007876
0.05490023 0.04350945 -0.00083628
0.05041220 0.04477694 0.00003874
0.04302889 0.03255465 -0.00003275
0.04016490 0.04476179 0.00052311
0.05155683 0.05326957 0.00089389
0.03820059 0.03922188 0.00049841
0.03724727 0.03848447 0.00040648
0.04332667 0.04258008 0.00068936
0.06010088 0.05227999 -0.00053584
0.03668741 0.03787209 0.00062456
0.03724499 0.03980394 0.00056975
0.04101676 0.03878793 0.00043459
0.05580062 0.04819269 -0.00039890
0.05976006 0.04903313 -0.00095910
0.06275657 0.05589045 -0.00029175
0.04516924 0.04255476 0.00034133
0.04922574 0.04094786 -0.00030700
0.04906773 0.05303038 0.00099341
0.04262866 0.04791951 0.00067022
0.05383535 0.04424181 -0.00045687
0.05969658 0.05939921 0.00084359
0.04524675 0.03472402 -0.00009543
0.06193416 0.05216327 -0.00092809
0.04823664 0.04241999 0.00002427
0.05545095 0.04772163 -0.00041834
0.05787795 0.05817846 0.00104911
0.03786967 0.03704975 0.00046991
0.05895396 0.05209365 -0.00024381
0.06186752 0.05504692 0.00000178
0.03395772 0.03916205 0.00021483
0.05893765 0.05658764 0.00055706
0.04388564 0.03393479 -0.00024440
0.05395580 0.04268750 -0.00087300
0.04184950 0.04724093 0.00060432
0.04618880 0.04151999 0.00024490
0.05483836 0.04785639 -0.00019524
0.04903392 0.03736690 -0.00049068
0.05351342 0.05454144 0.00093991
0.05521210 0.05720428 0.00098145
0.03223790 0.03941610 0.00007892
0.05153680 0.04312964 -0.00029489
0.04620719 0.04615789 0.00058691
0.04692556 0.04979928 0.00081739
0.04288892 0.03516147 0.00032671
0.05634183 0.05743584 0.00102650
0.04514742 0.04378290 0.00049428
0.04243929 0.03581534 0.00013561
0.04476516 0.04941951 0.00066543
0.04796878 0.04498704 0.00056748
0.04242193 0.04146576 0.00062960
0.06445489 0.05447845 -0.00091150
0.04983114 0.05128127 0.00078020
0.05523247 0.04445572 -0.00073968
0.03887635 0.03969355 0.00061502
0.05588827 0.05867986 0.00113920
0.04278929 0.04083355 0.00065691
0.05039517 0.04889626 0.00055634
0.05908380 0.04802134 -0.00106411
0.04975213 0.04250676 -0.00017019
0.06088013 0.05150431 -0.00079167
0.06020313 0.05089967 -0.00058933
0.04461770 0.03737240 0.00003556
0.06083901 0.05526905 0.00002339
0.05091175 0.04415342 -0.00010353
0.05399037 0.04297010 -0.00077601
0.04742958 0.04339766 0.00061779
0.04735690 0.04817311 0.00068099
0.04843262 0.03663830 -0.00054327
0.05506500 0.05334458 0.00051437
0.05151925 0.04733754 0.00023813
0.04736715 0.04796297 0.00074733
0.05549891 0.04982175 -0.00005244
0.04718291 0.04426299 0.00062703
0.04810386 0.04975118 0.00072647
0.06310020 0.05596201 -0.00039013
0.04087602 0.04638416 0.00063229
0.04862920 0.04194125 0.00003198
0.03978591 0.03375223 0.00050193
0.03480989 0.03546730 0.00036482
0.06320009 0.05401279 -0.00061874
0.04036553 0.04597289 0.00051864
0.03625873 0.03625476 0.00069520
0.05786605 0.04679167 -0.00097091
0.03860177 0.03533112 0.00038746
0.06326194 0.05379280 -0.00099670
0.04448941 0.03252193 -0.00024600
0.04464441 0.03910337 0.00015725
0.05982228 0.04974138 -0.00071603
0.05989648 0.06189160 0.00115045
0.05788380 0.05138426 0.00010068
0.04502048 0.04600915 0.00074497
0.06412133 0.05539381 -0.00059767
0.05849859 0.04996678 -0.00029179
0.04481120 0.04038607 0.00056713
0.04311786 0.04320019 0.00070211
0.06134344 0.05995542 0.00066659
0.04447595 0.03334104 -0.00006555
0.04837406 0.03781441 -0.00048284
0.03815019 0.04427611 0.00045994
0.04505964 0.04228091 0.00066757
0.04575974 0.05031442 0.00072230
0.04155541 0.04187814 0.00055080
0.05619026 0.05011704 0.00024252
0.03216031 0.03937873 0.00018626
0.05496800 0.05796519 0.00108481
0.03753481 0.03779130 0.00055634
0.04702467 0.04990653 0.00083659
0.05662457 0.04923668 -0.00039153
0.05220158 0.05480162 0.00091583
0.04783029 0.05103925 0.00084163
0.03351639 0.03968847 0.00017791
0.03304856 0.03877052 0.00026467
0.05124686 0.04298416 -0.00007631
0.03310114 0.03704944 0.00046156
0.03262885 0.03975046 0.00014445
0.04660014 0.03778854 0.00005792
0.06094917 0.05135549 -0.00086088
0.06363464 0.05489484 -0.00078788
0.04106659 0.04476566 0.00057976
0.06180883 0.05579777 -0.00007750
0.05610126 0.05807450 0.00102058
0.03712988 0.04107009 0.00053190
0.04149745 0.02930007 -0.00004894
0.04322000 0.04144121 0.00071336
0.03697847 0.03648089 0.00069228
0.06076368 0.05948742 0.00090715
0.04445621 0.03408777 -0.00000069
0.04919801 0.04394662 0.00009407
0.06253798 0.05584027 -0.00026648
0.04356239 0.04382719 0.00073589
0.05961562 0.05615922 0.00052287
0.03399642 0.03934061 0.00029143
0.04841349 0.03990578 -0.00029101
0.03893334 0.03638324 0.00041476
0.05196494 0.04982025 0.00066584
0.04987274 0.04757154 0.00077169
0.05338860 0.05668395 0.00106140
0.03946697 0.02818528 0.00020699
0.03791979 0.03678475 0.00071739
0.03296918 0.03601056 0.00030442
0.06049799 0.05932937 0.00087898
0.04176296 0.04317167 0.00070143
0.04724687 0.04624644 0.00063749
0.06321157 0.05732231 0.00012475
0.05567632 0.05358817 0.00053346
0.04610854 0.03806828 0.00023922
0.06240812 0.05167975 -0.00104227
0.05515890 0.04381197 -0.00085090
0.03895347 0.03951041 0.00064350
0.03477373 0.03820500 0.00030527
0.04139791 0.04647401 0.00069002
0.04553047 0.03691357 -0.00011889
0.05323334 0.04209132 -0.00074044
0.04407702 0.04906795 0.00069907
0.03709444 0.03149728 0.00031203
0.04872753 0.05217983 0.00093660
0.05489160 0.05787487 0.00102008
0.03386840 0.03971350 0.00020498
0.04015770 0.04582391 0.00048554
0.05241536 0.04271016 -0.00050017
0.04606952 0.03944058 0.00007161
0.04382173 0.03553677 -0.00004436
0.03272827 0.03544275 0.00048153
0.06077045 0.05806045 0.00059464
0.05060409 0.05120715 0.00077814
0.04893552 0.05300439 0.00092327
0.06006168 0.05934483 0.00074739
0.05037957 0.05272783 0.00082653
0.05297361 0.05101036 0.00050339
0.06265611 0.05618674 0.00003125
0.04516369 0.04326519 0.00059513
0.06098174 0.05199792 -0.00042926
0.05790525 0.05487821 0.00036214
0.04967334 0.04747164 0.00057680
0.03317305 0.03975011 0.00020073
0.04131138 0.03899102 0.00066523
0.05783990 0.05032211 -0.00035104
0.04207083 0.04569346 0.00074101
0.05944644 0.05007424 -0.00078030
0.06007927 0.05028393 -0.00068554
0.03700577 0.03483178 0.00039615
0.05655632 0.05232892 0.00025789
0.05513656 0.05743043 0.00098601
0.05710083 0.05916519 0.00110768
0.04666956 0.03485020 -0.00038920
0.05556275 0.05787479 0.00101483
0.06288367 0.05233033 -0.00105855
0.05590256 0.05468458 0.00083533
0.06252226 0.05439400 -0.00040704
0.03502005 0.03781452 0.00049128
0.04974322 0.04977180 0.00086353
0.05461505 0.04524218 -0.00064152
0.03487136 0.03594101 0.00047823
0.06552181 0.05568261 -0.00094324
0.05949345 0.05897417 0.00079554
0.04812864 0.03898781 -0.00005041
0.04159367 0.03905154 0.00068292
0.05829613 0.05359179 0.00038993
0.04245241 0.03259969 -0.00013638
0.05727877 0.04628999 -0.00088815
0.05018872 0.04286364 0.00019362
0.03532320 0.03987536 0.00036683
0.04674613 0.03628917 -0.00044376
0.05259561 0.05323624 0.00072165
0.05929922 0.04926459 -0.00090984
0.05370967 0.04376393 -0.00063438
0.05413283 0.05626197 0.00097072
0.03716326 0.04049191 0.00039776
0.03916410 0.03083820 0.00007077
0.06376973 0.05721611 -0.00029424
0.04653930 0.03476643 -0.00038099
0.05690008 0.04576707 -0.00095689
0.03628656 0.03833660 0.00053583
0.03192130 0.03819262 0.00025559
0.05716457 0.04788733 -0.00052191
0.04896484 0.05169389 0.00084826
0.05973943 0.04905439 -0.00087379
0.04116047 0.03593851 0.00049293
0.05292896 0.04866030 0.00049100
0.04862264 0.04181558 -0.00003900
0.05374062 0.05487853 0.00079179
0.04605115 0.05020068 0.00076578
0.06038527 0.05733355 0.00049295
0.04762984 0.04189302 0.00001878
0.05545375 0.04580618 -0.00061795
0.04165917 0.03947352 0.00038768
0.05452538 0.04710087 -0.00031994
0.04475572 0.03278565 -0.00034095
0.06267938 0.05315020 -0.00069829
0.05054110 0.03879669 -0.00061455
0.03812440 0.04141011 0.00058079
0.03900801 0.03387592 0.00028203
0.05819036 0.05900648 0.00105049
0.05035099 0.04924387 0.00070168
0.04660608 0.05099113 0.00076373
0.06294303 0.05233892 -0.00105451
0.04618350 0.04378832 0.00047165
0.04174739 0.03976846 0.00075556
0.06047726 0.05178858 -0.00066949
0.05387235 0.04280774 -0.00072750
0.05015702 0.04247640 -0.00014350
0.05404936 0.04854292 0.00034343
0.04095491 0.03934662 0.00078057
0.04779688 0.04619012 0.00074814
0.05177483 0.05198485 0.00067052
0.06466250 0.05573638 -0.00053339
0.04732589 0.04769891 0.00054202
0.05818174 0.05789357 0.00095550
0.04716777 0.05146117 0.00081513
0.04359574 0.03911273 0.00047697
0.06099000 0.06057053 0.00087802
0.03752428 0.04093503 0.00055901
0.05221268 0.05497536 0.00086324
0.03906304 0.03601251 0.00037996
0.05803939 0.04998735 -0.00048653
0.03633514 0.03975166 0.00034826
0.03870161 0.03121887 0.00047700
0.03382834 0.03517767 0.00060092
0.05876774 0.05837884 0.00099360
0.03713863 0.04230136 0.00038751
0.03388660 0.03741187 0.00047047
0.03827969 0.03379507 0.00070877
0.06508525 0.05451159 -0.00116769
0.05386378 0.04745358 0.00003977
0.03442607 0.03654414 0.00041476
0.04043542 0.02974901 0.00023914
0.04520539 0.03651521 -0.00014113
0.05825491 0.05933782 0.00097065
0.04939662 0.04998722 0.00086151
0.05567895 0.05212755 0.00065010
0.05469594 0.04353512 -0.00079196
0.05790197 0.05998655 0.00108024
0.04144055 0.03864802 0.00027796
0.04416110 0.03774910 0.00036607
0.04714006 0.03682598 -0.00013141
0.04134270 0.04134435 0.00074443
0.03754385 0.03990115 0.00064390
0.05772865 0.06016016 0.00111471
0.04198525 0.03884152 0.00062038
0.04732015 0.04655528 0.00054929
0.05407459 0.05506082 0.00085125
0.03669550 0.04015741 0.00032111
0.05216918 0.04990123 0.00068823
0.05776448 0.05028093 -0.00002405
0.05264211 0.04622855 0.00027510
0.05916796 0.04891300 -0.00095500
0.05424726 0.05696230 0.00099455
0.05846459 0.05115422 -0.00038463
0.04363369 0.04834938 0.00069749
0.05887902 0.05379070 0.00009037
0.05536302 0.04409567 -0.00084243
0.06110273 0.05232581 -0.00044901
0.04661791 0.04239308 0.00049409
0.05600855 0.05829235 0.00105630
0.04572551 0.03512921 -0.00039279
0.04523580 0.03336086 -0.00036985
0.04786405 0.05208405 0.00078127
0.06301814 0.05688007 0.00006291
0.05233135 0.04322977 -0.00049891
0.03271868 0.03981642 0.00013030
0.04441558 0.04621561 0.00063136
0.05980959 0.05311412 -0.00025048
0.03598282 0.04202224 0.00037669
0.06137923 0.05178124 -0.00084112
0.04894264 0.05294998 0.00094842
0.05507342 0.05215057 0.00062972
0.04716011 0.04759369 0.00086387
0.06398453 0.05724330 -0.00003249
0.03916139 0.02911017 0.00008095
0.04639515 0.05010079 0.00081829
0.05830285 0.04729603 -0.00096395
0.05330439 0.04837705 0.00009442
0.03932580 0.03146597 0.00004344
0.05957210 0.05542212 0.00024276
0.04109455 0.02987688 0.00001116
0.06121943 0.05537221 0.00011369
0.05327259 0.05389049 0.00077561
0.03584424 0.03433837 0.00051044
0.03600694 0.04258949 0.00030833
0.06339054 0.05772717 -0.00005400
0.04312419 0.03951015 0.00022866
0.04286948 0.04801101 0.00071853
0.05222661 0.05149241 0.00063182
0.06283414 0.05345996 -0.00092756
0.05987351 0.05306173 -0.00017211
0.04053387 0.03560491 0.00027887
0.04236859 0.03960237 0.00061940
0.05412477 0.05056778 0.00028609
0.03570983 0.03958952 0.00044289
0.05938312 0.05953464 0.00102903
0.04964548 0.04235824 0.00017900
0.05309222 0.04166305 -0.00075292
0.05509932 0.05794884 0.00098921
0.03740643 0.03480598 0.00043208
0.04141896 0.03978763 0.00070010
0.04269959 0.03073460 -0.00019597
0.03943017 0.04422291 0.00036859
0.03988476 0.02856519 0.00012080
0.04137244 0.04122883 0.00065331
0.04411548 0.04312200 0.00053840
0.05522541 0.05792291 0.00102970
0.06121184 0.05088062 -0.00082976
0.04555032 0.04897530 0.00078989
0.04497686 0.04546757 0.00071559
0.04205429 0.03829007 0.00064770
0.05979100 0.05084345 -0.00045449
0.05562005 0.04782631 -0.00039148
0.04149790 0.04039248 0.00038707
0.06255291 0.05758033 0.00039217
0.04801896 0.04744503 0.00072818
0.03824600 0.04288301 0.00055896
0.05308282 0.04158281 -0.00084777
0.03711505 0.04246904 0.00041078
0.06093117 0.05141776 -0.00085011
0.04337612 0.04297152 0.00067437
0.04923400 0.05046056 0.00085298
0.03436483 0.03852516 0.00028274
0.04994895 0.05190464 0.00088385
0.06153368 0.05233407 -0.00076286
0.05145040 0.04437926 -0.00012283
0.04366314 0.04837881 0.00073387
0.04157350 0.03053981 -0.00021958
0.05602107 0.05013298 0.00024138
0.05883591 0.04920489 -0.00077702
0.05402994 0.05708206 0.00097496
0.05455009 0.05355812 0.00064525
0.05586741 0.05856749 0.00098821
0.03825189 0.04219416 0.00047770
0.04142460 0.03574447 0.00053591
0.05403531 0.04802078 -0.00006871
0.04657304 0.03887298 0.00021518
0.03942332 0.04069021 0.00068511
0.05515025 0.04852981 -0.00014048
0.05894586 0.05899556 0.00102466
0.05923276 0.06009623 0.00104095
0.04576532 0.03591757 0.00002943
0.05380593 0.05686845 0.00099146
0.05515356 0.05703699 0.00093531
0.03642701 0.03767349 0.00061963
0.05770986 0.05619584 0.00062539
0.04140669 0.03867438 0.00065077
0.05828771 0.05214615 0.00016068
0.05692646 0.04677418 -0.00064066
0.05504317 0.05151537 0.00059730
0.04457477 0.04921988 0.00077447
0.05428048 0.05149740 0.00061139
0.04420652 0.04400453 0.00056227
0.05661457 0.05482340 0.00058144
0.04050172 0.02818067 -0.00003254
0.04409534 0.04230946 0.00039987
0.04796243 0.04521622 0.00038236
0.05784565 0.06024700 0.00111161
0.03829497 0.04331851 0.00050633
0.06356740 0.05493373 -0.00051911
0.03931550 0.04214586 0.00066909
0.05871402 0.05592571 0.00044706
0.05072191 0.04781885 0.00066949
0.03720061 0.03086346 0.00026227
0.05181860 0.05310266 0.00076456
0.05383677 0.05114476 0.00071439
0.05204530 0.04628161 -0.00002721
0.04586488 0.04658926 0.00072552
0.04938737 0.04687985 0.00057887
0.04644530 0.04528922 0.00044842
0.06196959 0.05655739 0.00033758
0.05939073 0.05973707 0.00105313
0.04875240 0.03712211 -0.00052451
0.06035510 0.05708333 0.00064410
0.03479638 0.04048890 0.00029996
0.05533163 0.05185428 0.00041721
0.05936763 0.06106872 0.00104796
0.03781858 0.04135787 0.00047030
0.05195831 0.04918348 0.00070618
0.05460774 0.05751913 0.00111442
0.06427917 0.05594297 -0.00056724
0.03854451 0.03618241 0.00063378
0.03789395 0.04297999 0.00049347
0.05024762 0.04707585 0.00032866
0.03907951 0.04405185 0.00045603
0.03650756 0.03786738 0.00031711
0.05085807 0.03933387 -0.00067799
0.04251053 0.03887372 0.00056735
0.05191341 0.05233089 0.00078076
0.03308205 0.03956987 0.00024730
0.05985814 0.06080757 0.00104210
0.05996184 0.04929716 -0.00095608
0.05255825 0.04252813 -0.00054277
0.04228323 0.03734518 0.00031174
0.06168262 0.05641346 0.00023951
0.06391602 0.05320912 -0.00117474
0.05474538 0.04469541 -0.00046372
0.04760725 0.05192838 0.00084516
0.04499246 0.04391705 0.00068918
0.04689929 0.03788946 0.00010210
0.04251579 0.04480150 0.00057669
0.06243308 0.05648813 -0.00007437
0.03883457 0.03747384 0.00067997
0.05021958 0.04232263 0.00011650
0.04446740 0.04169878 0.00040708
0.03144252 0.03875436 -0.00000144
0.04114650 0.03031636 -0.00005899
0.06105053 0.05484035 -0.00011157
0.06283093 0.05559723 -0.00009379
0.05930478 0.05147964 -0.00046895
0.05428839 0.05100707 0.00051795
0.04102817 0.03568564 0.00055112
0.05536393 0.04830929 -0.00022211
0.03768984 0.04382741 0.00043535
0.05930162 0.05163455 -0.00044944
0.05497629 0.05133631 0.00063556
0.04132412 0.04494354 0.00049590
0.04840916 0.04081721 0.00015322
0.03953831 0.04191826 0.00044375
0.05194733 0.04282727 -0.00061024
0.06081866 0.06003562 0.00086617
0.04789243 0.05220845 0.00078019
0.06148352 0.05522378 0.00018213
0.04070915 0.03503769 0.00058143
0.05730235 0.04928457 -0.00047075
0.05851345 0.05874848 0.00105433
0.06446020 0.05647419 -0.00038109
0.03862959 0.03926128 0.00038820
0.04932844 0.03990503 -0.00012280
0.04412961 0.04201748 0.00060752
0.04243193 0.04767149 0.00059504
0.05654512 0.05170692 0.00037004
0.05310332 0.05102948 0.00063356
0.05747176 0.05836571 0.00096545
0.05219569 0.04727061 0.00043971
0.06550146 0.05510786 -0.00122905
0.03899092 0.04278922 0.00058163
0.03932057 0.04266461 0.00062568
0.05390366 0.05375743 0.00066644
0.04294784 0.04641341 0.00060117
0.04190900 0.03404242 0.00041874
0.04857975 0.04143972 0.00018285
0.05180484 0.04712736 0.00046360
0.06027127 0.05326389 -0.00022971
0.05432177 0.05378042 0.00087841
0.05742252 0.04914800 -0.00029173
0.04935311 0.05329974 0.00094522
0.05257846 0.05194029 0.00075960
0.04229533 0.03555528 0.00012108
0.06115557 0.05640932 0.00012583
0.03915242 0.04013086 0.00049181
0.03613908 0.03453428 0.00066376
0.04628035 0.04559033 0.00075944
0.05429843 0.05431904 0.00086438
0.05299550 0.04388931 -0.00020991
0.05754242 0.04957217 -0.00013551
0.05042447 0.04634800 0.00017213
0.05220115 0.05260026 0.00088528
0.05128299 0.05483300 0.00102040
0.06337874 0.05460120 -0.00039278
0.05287200 0.04618903 0.00012265
0.04149066 0.03675959 0.00058787
0.05603305 0.04800003 -0.00043703
0.06389603 0.05712285 -0.00025463
0.05883536 0.04908940 -0.00076258
0.05721665 0.04730381 -0.00061832
0.05902808 0.06082739 0.00110913
0.05751040 0.05693833 0.00070288
0.03495782 0.04157139 0.00025445
0.03468930 0.04111719 0.00022897
0.05591846 0.04753512 -0.00022433
0.04002284 0.04512172 0.00051638
0.04359793 0.03417737 -0.00015848
0.04450237 0.03257722 -0.00025107
0.05436279 0.05129712 0.00061363
0.05671531 0.04544587 -0.00092201
0.05470138 0.05048322 0.00055137
0.06347742 0.05288053 -0.00109905
0.05322550 0.04403168 -0.00030340
0.03171117 0.04836576 -0.00018711
0.03273594 0.05893849 0.00037409
0.03528684 0.07338306 0.00111164
0.02916354 0.04392627 0.00002940
0.04412109 0.07162498 -0.00100193
0.02727718 0.04915993 0.00032801
0.03278991 0.06969925 0.00103161
0.03633158 0.06741130 0.00054311
0.04168858 0.07490478 0.00046481
0.03218362 0.04759279 -0.00004053
0.03833691 0.06455310 0.00009990
0.03520230 0.05621291 -0.00004765
0.03206108 0.04750664 0.00002338
0.03291937 0.06457958 0.00071810
0.02723741 0.04822165 0.00037806
0.03270773 0.05347321 0.00029673
0.02728773 0.04818756 0.00065146
0.03794978 0.06333788 -0.00002566
0.04122050 0.06435754 -0.00088237
0.02542571 0.04086223 0.00026406
0.02793001 0.06044980 0.00069073
0.04074470 0.06252142 -0.00100515
0.02274484 0.05424814 0.00046373
0.03230056 0.05778380 0.00065513
0.02800489 0.04499552 0.00012839
0.04054230 0.06316290 -0.00075583
0.02213572 0.05310663 0.00033885
0.02967446 0.05923207 0.00058222
0.02784007 0.06219750 0.00077641
0.02444174 0.04173527 0.00038735
0.03966018 0.07627562 0.00076464
0.03625251 0.07059234 0.00075587
0.03487289 0.06944831 0.00086795
0.01959876 0.04743157 0.00019902
0.02401801 0.05274769 0.00058182
0.03532997 0.07353076 0.00114090
0.04091327 0.06492551 -0.00071574
0.02807719 0.05735695 0.00072091
0.03165260 0.05353966 0.00020727
0.03920063 0.07225062 0.00047096
0.02989741 0.06517813 0.00086268
0.02879132 0.04025273 0.00022112
0.02997084 0.04472412 0.00024509
0.02041843 0.05045929 0.00027012
0.03504438 0.05532610 -0.00010190
0.02215936 0.05334083 0.00040343
0.03062197 0.04118667 -0.00012291
0.02234541 0.04429872 0.00045389
0.02570929 0.05435409 0.00071054
0.03375696 0.05880244 0.00020723
0.04066247 0.06515937 -0.00081517
0.03478082 0.05483783 -0.00003898
0.02959727 0.05942822 0.00079084
0.04170682 0.06655738 -0.00081421
0.02982780 0.05782802 0.00079283
0.02484213 0.05129777 0.00052002
0.03275000 0.06944549 0.00100271
0.02921908 0.05025187 0.00055636
0.02375151 0.05179944 0.00065910
0.02805034 0.05208673 0.00070393
0.03654292 0.05404932 -0.00071369
0.03559890 0.05599106 -0.00049658
0.03059788 0.04859696 -0.00005157
0.03415662 0.06417878 0.00042198
0.03797956 0.07627653 0.00119482
0.02833034 0.05945922 0.00076522
0.03596629 0.05727436 -0.00040486
0.04079151 0.07240216 0.00011445
0.03106660 0.05656112 0.00034646
0.02932233 0.04071282 0.00004257
0.03439382 0.07197226 0.00106680
0.03155335 0.04338852 -0.00027836
0.03237827 0.04830533 -0.00020718
0.03531953 0.06408890 0.00037244
0.03372081 0.06716261 0.00073059
0.03725919 0.07492178 0.00104286
0.02787164 0.04364836 0.00018550
0.03060087 0.06619738 0.00092210
0.02171669 0.05010205 0.00030032
0.04391622 0.06949158 -0.00115688
0.02506873 0.05322925 0.00059237
0.02931364 0.04016797 -0.00004712
0.03567876 0.06300955 0.00045753
0.03730253 0.05576837 -0.00078926
0.03896014 0.06876097 0.00035089
0.03513394 0.05366428 -0.00047756
0.02957083 0.04781238 0.00039706
0.04381060 0.06939109 -0.00106189
0.02711317 0.06088016 0.00071816
0.03337298 0.06360391 0.00060979
0.03192548 0.06581522 0.00089262
0.02192707 0.04816507 0.00044075
0.03326530 0.05054590 -0.00042887
0.03247825 0.06207454 0.00063818
0.03089358 0.05082376 0.00009208
0.03241509 0.05340694 0.00025857
0.04365948 0.06901283 -0.00119619
0.03672531 0.06256891 -0.00008909
0.02079179 0.04827478 0.00038322
0.03169296 0.05551530 0.00051348
0.04120032 0.06626337 -0.00084392
0.04320860 0.06816146 -0.00104796
0.04263722 0.07161871 -0.00054083
0.02939623 0.03898383 -0.00010087
0.04091782 0.06832842 -0.00016100
0.03781453 0.07093412 0.00057166
0.02693024 0.05255484 0.00046288
0.03769756 0.05886975 -0.00068870
0.03654189 0.07208534 0.00079475
0.03197071 0.04474867 -0.00019870
0.02806499 0.05139585 0.00061738
0.03569717 0.07245842 0.00100935
0.03019939 0.06471665 0.00085301
0.03992569 0.07240859 0.00048618
0.03520461 0.05945584 -0.00003780
0.03183071 0.05292632 0.00006731
0.03876396 0.07254602 0.00066437
0.03665807 0.06956959 0.00058875
0.03217082 0.05466981 0.00005826
0.03982622 0.07384091 0.00080990
0.04165682 0.06847026 -0.00068554
0.04405339 0.07235032 -0.00080553
0.02511592 0.04195521 0.00062528
0.03447285 0.06852215 0.00080183
0.03751502 0.05698271 -0.00081225
0.04256980 0.06703456 -0.00110137
0.02676793 0.04844242 0.00034430
0.03487872 0.07254683 0.00116055
0.03519306 0.06172749 0.00046000
0.04132177 0.07286995 0.00025433
0.04261487 0.07087153 -0.00038701
0.03019772 0.05871152 0.00048782
0.03278079 0.04707519 -0.00031511
0.02266186 0.04793046 0.00041459
0.04263801 0.06889767 -0.00078782
0.02261741 0.05392736 0.00037071
0.02209642 0.04666253 0.00039123
0.02531862 0.05644769 0.00060384
0.03377130 0.05329912 -0.00028904
0.03733218 0.07068279 0.00087743
0.04342011 0.06883091 -0.00114220
0.02994461 0.04310679 0.00019528
0.03617443 0.05586541 -0.00042454
0.02804869 0.05088985 0.00057146
