ply
format ascii 1.0
element vertex 1397
property float x
property float y
property float z
end_header
0.03425571 -0.05410949 0.00027613
0.03233561 -0.05238777 0.00029711
0.03858306 -0.06688268 0.00037725
0.04224669 -0.06571129 0.00083156
0.03274871 -0.06171787 0.00007255
0.03769444 -0.07131327 -0.00000713
0.03504055 -0.06655810 -0.00012243
0.04190879 -0.06924968 0.00075623
0.03751259 -0.07295304 -0.00036133
0.03751871 -0.06085237 0.00053441
0.03843698 -0.05790162 0.00050928
0.04313459 -0.07605180 0.00046157
0.03470089 -0.05422323 0.00044083
0.04155473 -0.06497899 0.00072109
0.03601393 -0.07327543 -0.00070966
0.03197890 -0.05084879 0.00046106
0.03374186 -0.05030859 0.00025508
0.02917201 -0.06083435 -0.00027271
0.02663655 -0.05922360 -0.00030351
0.03609203 -0.05700450 0.00056917
0.03868276 -0.05906376 0.00043638
0.03878975 -0.05835120 0.00042986
0.03402206 -0.06162624 0.00049741
0.04371158 -0.07621576 0.00060698
0.02677315 -0.05677853 0.00015206
0.03665209 -0.06453559 0.00060433
0.03214727 -0.05127821 0.00038970
0.02907437 -0.06034008 -0.00003164
0.04149760 -0.06892605 0.00073485
0.03990756 -0.06465228 0.00068552
0.04490871 -0.07137823 0.00078808
0.03459567 -0.05402344 0.00027096
0.03799789 -0.06502605 0.00041961
0.04222840 -0.06859912 0.00076579
0.03314401 -0.05301412 0.00034580
0.03532605 -0.05610143 0.00048760
0.03622951 -0.05762658 0.00059555
0.03235270 -0.06385984 0.00004929
0.04303095 -0.07046494 0.00074006
0.04168401 -0.07923153 -0.00047732
0.04499668 -0.07540301 0.00081047
0.03049399 -0.06357300 -0.00048369
0.04078055 -0.06777981 0.00063812
0.03879231 -0.06698944 0.00059092
0.03462354 -0.05650065 0.00065609
0.04252015 -0.07796477 0.00009335
0.04059569 -0.06713528 0.00053688
0.04358182 -0.07785292 0.00019288
0.03016474 -0.05114259 0.00032208
0.03728068 -0.06261289 0.00068498
0.03951090 -0.07266856 -0.00000497
0.04049250 -0.07531033 -0.00014179
0.03158731 -0.06592286 -0.00057791
0.04258611 -0.07925972 -0.00007307
0.02550357 -0.05743543 -0.00015781
0.02722255 -0.05373727 0.00021051
0.03478928 -0.06464276 0.00006561
0.04506634 -0.07155731 0.00095602
0.03144150 -0.05105401 0.00042765
0.03857739 -0.07489771 -0.00037225
0.04036655 -0.06976637 0.00068314
0.03950911 -0.07493748 -0.00019153
0.03592403 -0.06187141 0.00033608
0.03753834 -0.06465666 0.00034505
0.02724670 -0.05470416 0.00007800
0.03248408 -0.05386231 0.00061572
0.03718868 -0.06651471 0.00041284
0.03278088 -0.06837740 -0.00063071
0.04060676 -0.06729238 0.00069276
0.04038550 -0.07476330 0.00019734
0.03397908 -0.06296284 0.00014944
0.03045237 -0.05528586 0.00062313
0.03834543 -0.06702862 0.00057120
0.03456973 -0.07010272 -0.00068491
0.04087535 -0.06275027 0.00060898
0.03495935 -0.05255235 0.00039207
0.04001968 -0.07420254 -0.00010907
0.03709399 -0.06660852 0.00055587
0.03688870 -0.06073762 0.00050442
0.04058417 -0.07023857 0.00056652
0.04058140 -0.08026148 -0.00104918
0.03884389 -0.07463309 -0.00034048
0.03143710 -0.05667814 0.00028963
0.03995122 -0.07340989 0.00019076
0.04227565 -0.07778186 -0.00009322
0.03685543 -0.07455449 -0.00085283
0.03335076 -0.06262166 0.00026067
0.03433979 -0.06279167 0.00017004
0.03864248 -0.07321142 -0.00000661
0.03972654 -0.07357205 0.00020677
0.04313591 -0.06799284 0.00079462
0.03647077 -0.05335528 0.00020808
0.03703653 -0.07474854 -0.00083590
0.03605990 -0.06430808 0.00057569
0.03142189 -0.06053111 0.00006204
0.03660018 -0.07430285 -0.00080625
0.02705232 -0.05878626 -0.00025114
0.04494111 -0.07793913 0.00068935
0.04717659 -0.07606616 0.00093192
0.04570591 -0.07311550 0.00102311
0.03743644 -0.06824913 0.00014526
0.03414783 -0.06000199 0.00055154
0.03327403 -0.06213645 0.00042641
0.03459386 -0.05834430 0.00054603
0.03565785 -0.05293694 0.00029499
0.03290461 -0.05580927 0.00055755
0.04058151 -0.06185239 0.00057425
0.03754138 -0.06284667 0.00043693
0.02970741 -0.06145590 -0.00002836
0.03237285 -0.06664439 -0.00036597
0.04275259 -0.07375919 0.00064952
0.03565378 -0.06325846 0.00035150
0.04068073 -0.08035704 -0.00102966
0.04504419 -0.07156687 0.00081116
0.03158991 -0.06273059 -0.00019463
0.03370777 -0.05276275 0.00037254
0.04064699 -0.07497693 -0.00007933
0.03292174 -0.05631745 0.00036696
0.03825673 -0.06737899 0.00028788
0.03869883 -0.07749306 -0.00096195
0.04417111 -0.07337029 0.00091691
0.03906003 -0.07395098 -0.00027696
0.04068229 -0.07145301 0.00032300
0.03941820 -0.07310594 0.00008700
0.03665332 -0.06866427 0.00002644
0.04010971 -0.07438340 -0.00006158
0.04051480 -0.07890296 -0.00063923
0.03876765 -0.06708510 0.00049453
0.03695640 -0.06205084 0.00054171
0.03020514 -0.05632423 0.00053622
0.03361657 -0.05341329 0.00042881
0.02699137 -0.05776678 -0.00008351
0.04106784 -0.06307261 0.00070798
0.04096156 -0.07490431 0.00021886
0.03513873 -0.05099614 0.00009147
0.03654785 -0.05351435 0.00021401
0.03796823 -0.06091168 0.00051939
0.04174232 -0.06763089 0.00075831
0.03382023 -0.06793415 -0.00044577
0.03620435 -0.05910451 0.00060848
0.04384599 -0.06925374 0.00087012
0.03168363 -0.05117230 0.00049965
0.04434840 -0.07118445 0.00086370
0.04215187 -0.07391861 0.00050647
0.04653670 -0.07566648 0.00101405
0.02648021 -0.05383837 0.00010098
0.03734539 -0.06101486 0.00072492
0.04163347 -0.07291290 0.00057549
0.03238038 -0.06033208 0.00028629
0.03829545 -0.06658465 0.00064290
0.04281861 -0.06672490 0.00083006
0.04125074 -0.06585157 0.00063724
0.04255532 -0.07477620 0.00043708
0.04690524 -0.07628694 0.00089902
0.03661409 -0.07412240 -0.00079428
0.04524744 -0.07220442 0.00091283
0.04602584 -0.07788811 0.00071539
0.03586720 -0.06725979 0.00028402
0.03657820 -0.07086545 -0.00035271
0.03400139 -0.05417125 0.00048334
0.04717483 -0.07635938 0.00110402
0.03688093 -0.05758822 0.00050592
0.04057786 -0.07617018 -0.00001896
0.02819157 -0.06140808 -0.00043419
0.03950955 -0.07859894 -0.00104877
0.03634674 -0.06846345 -0.00003047
0.03319244 -0.05797921 0.00052706
0.02997558 -0.05922756 0.00006952
0.03857655 -0.07348765 -0.00038040
0.03067287 -0.06101325 -0.00010219
0.04051665 -0.07742921 -0.00024129
0.03512035 -0.06489582 0.00037109
0.03439962 -0.07078345 -0.00069608
0.04317809 -0.07833005 0.00003787
0.04461096 -0.07082173 0.00094199
0.04137346 -0.07484003 0.00015743
0.04250265 -0.07101282 0.00081755
0.03901267 -0.06565068 0.00064133
0.03199562 -0.06074375 0.00016646
0.03650763 -0.06115519 0.00063116
0.04102721 -0.06968210 0.00069867
0.04000009 -0.06095386 0.00059037
0.04270158 -0.06892164 0.00083515
0.04087500 -0.07967262 -0.00074069
0.04286428 -0.07635144 0.00030360
0.03516105 -0.06791833 -0.00019656
0.03956658 -0.06441525 0.00050727
0.03930145 -0.06672191 0.00051227
0.03247109 -0.05653843 0.00031020
0.04119355 -0.07658602 0.00001911
0.03552178 -0.06869920 -0.00000215
0.02463044 -0.05598087 -0.00009896
0.04007518 -0.07952122 -0.00098984
0.04221167 -0.07625036 0.00012354
0.03059489 -0.06281045 -0.00030213
0.02962641 -0.06365879 -0.00043075
0.04322492 -0.07271125 0.00073073
0.02385033 -0.05489393 -0.00001584
0.04587321 -0.07325151 0.00098197
0.03904870 -0.06405919 0.00055300
0.03300675 -0.05269223 0.00043094
0.03868637 -0.07101284 0.00039330
0.04016864 -0.06282825 0.00068133
0.04131737 -0.07710568 -0.00005388
0.02954647 -0.05681541 0.00052736
0.03258606 -0.06060551 0.00017207
0.03882484 -0.07113463 0.00020704
0.03837059 -0.07697077 -0.00092112
0.04141808 -0.07229888 0.00055214
0.03552839 -0.06970924 -0.00046967
0.03451312 -0.05940668 0.00051550
0.03330487 -0.05973754 0.00025003
0.04364201 -0.07568893 0.00060475
0.03684889 -0.07467288 -0.00088643
0.03547433 -0.06348412 0.00024355
0.04166005 -0.07445597 0.00045268
0.03927512 -0.06158327 0.00059446
0.03485335 -0.05070921 0.00010191
0.02903582 -0.06285485 -0.00047017
0.03446153 -0.06873348 -0.00046242
0.04038574 -0.06727825 0.00070791
0.03615329 -0.07318623 -0.00084567
0.04720307 -0.07619305 0.00097166
0.04212651 -0.07259438 0.00068777
0.04032013 -0.07108199 0.00039619
0.03864823 -0.06949481 0.00016892
0.03613268 -0.07336575 -0.00081745
0.02556502 -0.05541137 -0.00014946
0.03472377 -0.06779666 -0.00018061
0.03373832 -0.05676284 0.00066846
0.04052086 -0.06557047 0.00066231
0.02919742 -0.06227923 -0.00024890
0.03205426 -0.05400856 0.00057354
0.03648878 -0.06941964 -0.00006894
0.04377909 -0.07317994 0.00076823
0.03196464 -0.05332447 0.00059229
0.03961498 -0.07872802 -0.00097033
0.04350459 -0.07827019 0.00009715
0.03765148 -0.06560498 0.00040678
0.03683080 -0.05645911 0.00035424
0.03640001 -0.05313340 0.00030819
0.03428222 -0.05975289 0.00038471
0.03926877 -0.06171547 0.00066186
0.04088824 -0.06605459 0.00068763
0.04553606 -0.07473868 0.00091483
0.02836978 -0.05253458 0.00034702
0.03334337 -0.06767514 -0.00048686
0.04174624 -0.07095925 0.00073992
0.03729143 -0.06862435 0.00034328
0.03201873 -0.05448894 0.00040096
0.03483344 -0.06672340 0.00012263
0.03957044 -0.06111629 0.00063225
0.03371456 -0.05277324 0.00042391
0.04078073 -0.07360369 0.00016502
0.03295005 -0.06134988 0.00009224
0.04006971 -0.06758689 0.00068086
0.03944581 -0.06220070 0.00065787
0.03901786 -0.06482644 0.00047608
0.03817187 -0.06024462 0.00054447
0.03454474 -0.07116223 -0.00067591
0.03220519 -0.05292198 0.00046279
0.04041616 -0.07115657 0.00042773
0.03112684 -0.06531830 -0.00051603
0.03725964 -0.06845391 0.00008982
0.03018406 -0.05829792 0.00043567
0.03306274 -0.05665465 0.00061732
0.03224252 -0.06163819 0.00026392
0.03235820 -0.06131783 0.00014031
0.04156081 -0.06753219 0.00068763
0.04115162 -0.08013324 -0.00069186
0.02727445 -0.05640174 0.00038971
0.03701804 -0.06903478 -0.00009502
0.03327010 -0.06609813 -0.00010002
0.02838276 -0.05592243 0.00037083
0.03881869 -0.06832974 0.00034573
0.04035915 -0.06800446 0.00051391
0.04249311 -0.07189679 0.00078422
0.03194262 -0.05746445 0.00057657
0.04751752 -0.07692616 0.00094359
0.02803712 -0.06089707 -0.00030092
0.03555413 -0.05664792 0.00051289
0.03582778 -0.06296763 0.00027135
0.03415755 -0.04882588 -0.00003349
0.02599246 -0.05420044 0.00036583
0.03427921 -0.07058665 -0.00079187
0.04498919 -0.07276629 0.00081369
0.03973502 -0.07901765 -0.00094451
0.03964837 -0.07640023 -0.00032530
0.02961332 -0.06252389 -0.00032800
0.02963266 -0.05876839 0.00022672
0.04142024 -0.07735469 -0.00031037
0.04228656 -0.07017080 0.00081500
0.04175364 -0.07865078 -0.00044311
0.04175656 -0.06456911 0.00061374
0.03505004 -0.06559962 0.00035389
0.03650980 -0.05575084 0.00036374
0.03867309 -0.07139712 -0.00005422
0.02763140 -0.05305484 0.00023663
0.03591003 -0.07032449 -0.00044710
0.04449607 -0.07316153 0.00073061
0.03519567 -0.06364288 0.00049623
0.04324310 -0.07074795 0.00076505
0.03881804 -0.07757878 -0.00099772
0.03616332 -0.05959903 0.00062498
0.04570205 -0.05061466 0.00041058
0.03792448 -0.04989806 0.00028054
0.04884750 -0.06012687 0.00045554
0.04533673 -0.05827654 0.00051719
0.04955816 -0.05897963 0.00063251
0.04027157 -0.05588613 0.00032096
0.05386379 -0.06213544 0.00083855
0.04388747 -0.04838527 0.00034789
0.04555535 -0.06334725 -0.00031384
0.04730522 -0.06143532 0.00029876
0.03734532 -0.04967165 0.00055690
0.03529313 -0.05235055 0.00017258
0.03855707 -0.04855493 0.00058428
0.05288854 -0.06121772 0.00096964
0.04173990 -0.05944373 -0.00025735
0.04276366 -0.04726786 0.00031548
0.04425033 -0.04761727 0.00026515
0.03586031 -0.04889167 0.00053069
0.05226866 -0.06330668 0.00074627
0.04154746 -0.05179676 0.00064533
0.03389357 -0.05080443 0.00005986
0.04425820 -0.04980529 0.00047018
0.03725282 -0.05208727 0.00045698
0.04376173 -0.05633250 0.00055602
0.05026954 -0.06200136 0.00041220
0.04995773 -0.07014253 -0.00082312
0.05256906 -0.06078242 0.00080117
0.05109868 -0.06375148 0.00062190
0.04576495 -0.06172777 -0.00003505
0.04158284 -0.04661783 0.00021789
0.05018229 -0.06599955 0.00031323
0.04047916 -0.05261430 0.00022675
0.03981917 -0.05827852 -0.00031877
0.04116047 -0.04670525 0.00040868
0.04801789 -0.06008437 0.00051702
0.05182518 -0.07294883 -0.00095434
0.04539774 -0.04929982 0.00033074
0.05793223 -0.06832691 0.00094665
0.05344271 -0.07143566 -0.00001001
0.03869314 -0.04495943 0.00032625
0.04720147 -0.06479779 -0.00032793
0.05607044 -0.06894787 0.00065758
0.04298626 -0.05760386 0.00033017
0.05091893 -0.06619234 0.00037873
0.04852872 -0.05404594 0.00055468
0.04484781 -0.04853401 0.00032973
0.05445415 -0.06968657 0.00023833
0.03570121 -0.04878067 0.00058045
0.05478157 -0.06581230 0.00080702
0.05490059 -0.06874575 0.00063803
0.05759732 -0.06762649 0.00099045
0.05123339 -0.06030126 0.00072082
0.05815842 -0.06882283 0.00095138
0.04913342 -0.06204920 0.00039361
0.03543779 -0.04876839 0.00023231
0.04023173 -0.05863883 -0.00041622
0.04650437 -0.05775123 0.00046266
0.05146362 -0.06414786 0.00044556
0.05192240 -0.06491405 0.00042976
0.04868908 -0.06691255 -0.00023359
0.04034993 -0.06026899 -0.00051711
0.04848133 -0.05587516 0.00067949
0.04654695 -0.06705089 -0.00080251
0.04030592 -0.06023038 -0.00056324
0.03686205 -0.04709552 0.00041869
0.03896879 -0.05378397 0.00038073
0.04114475 -0.05814597 -0.00018497
0.04291916 -0.05674509 0.00040001
0.04894690 -0.05838619 0.00076137
0.04650333 -0.06482731 -0.00014177
0.05687997 -0.06806727 0.00094456
0.04242706 -0.05317788 0.00037340
0.05763549 -0.06777924 0.00102530
0.04614714 -0.05744744 0.00058134
0.03692380 -0.05414043 -0.00014995
0.04482152 -0.06209695 -0.00027876
0.05213384 -0.06854303 0.00000679
0.04472997 -0.05173811 0.00058495
0.05078647 -0.07166899 -0.00093075
0.04790394 -0.05785103 0.00057227
0.05140090 -0.06896872 -0.00016489
0.04490015 -0.05233214 0.00057801
0.04890102 -0.05980522 0.00059005
0.05844706 -0.06888566 0.00095788
0.05532117 -0.06953587 0.00066663
0.05132422 -0.05908563 0.00075857
0.03967158 -0.04917379 0.00038490
0.05478944 -0.06794490 0.00070117
0.05468907 -0.06693675 0.00068618
0.04890167 -0.05472194 0.00060748
0.04317176 -0.05505735 0.00050281
0.05280982 -0.06598467 0.00044906
0.04722465 -0.06795788 -0.00095530
0.04179136 -0.05086724 0.00037984
0.03665253 -0.04848518 0.00054046
0.04537008 -0.06430437 -0.00048473
0.04285482 -0.05519507 0.00033301
0.05506381 -0.06558744 0.00096691
0.05298112 -0.06582432 0.00063764
0.04785317 -0.05485539 0.00058009
0.04366920 -0.04765503 0.00036674
0.03838602 -0.05773289 -0.00055386
0.04889032 -0.05855106 0.00064145
0.04863243 -0.05418357 0.00062363
0.04078335 -0.05491125 0.00043832
0.04098920 -0.05826408 0.00008730
0.05236905 -0.06732127 0.00040671
0.05169219 -0.07287574 -0.00104809
0.03676073 -0.04651633 0.00059698
0.05349948 -0.07271776 -0.00038857
0.04999429 -0.05726489 0.00064276
0.04770206 -0.06065327 0.00037700
0.05148905 -0.05895544 0.00074135
0.04845873 -0.06047682 0.00064867
0.04037411 -0.04893611 0.00036306
0.04466212 -0.05352368 0.00061317
0.03506196 -0.05316611 0.00003668
0.04310283 -0.06032954 -0.00025008
0.03431178 -0.05089074 0.00024980
0.04120324 -0.05231840 0.00060921
0.04623640 -0.05565480 0.00066444
0.05072796 -0.06961069 -0.00059520
0.05245104 -0.06004798 0.00081703
0.04408851 -0.04736544 0.00027358
0.05071620 -0.05996300 0.00074085
0.05617196 -0.06562059 0.00094427
0.05199471 -0.06195141 0.00060414
0.04042602 -0.05911193 -0.00025401
0.04589337 -0.05806349 0.00060155
0.03880360 -0.04828775 0.00038270
0.04324677 -0.05003490 0.00057745
0.04089910 -0.06086292 -0.00049897
0.03842872 -0.05817466 -0.00043508
0.04436052 -0.05537535 0.00046184
0.04659925 -0.06583109 -0.00046100
0.03898075 -0.05885449 -0.00051392
0.04712887 -0.05272980 0.00042815
0.05109075 -0.06286813 0.00055295
0.03862511 -0.05283578 0.00047130
0.05283119 -0.06983311 0.00017901
0.04853904 -0.05909955 0.00059453
0.04131020 -0.05879979 -0.00006060
0.05394694 -0.06430766 0.00072441
0.05235242 -0.06885926 0.00027267
0.04335256 -0.04716657 0.00023638
0.03890792 -0.05413004 0.00003798
0.04233320 -0.06254066 -0.00060859
0.04697676 -0.05984602 0.00031823
0.03552558 -0.04913340 0.00036788
0.04354793 -0.05553065 0.00028390
0.04792323 -0.05654253 0.00071452
0.04297559 -0.04797780 0.00026252
0.05200633 -0.07173787 -0.00071828
0.05624525 -0.06610499 0.00088466
0.04758639 -0.05830132 0.00066939
0.05286257 -0.06319786 0.00071011
0.05368460 -0.06768874 0.00061356
0.04837936 -0.06642210 -0.00017206
0.04240201 -0.06044013 -0.00021934
0.03803516 -0.05380191 0.00023483
0.05186539 -0.06089690 0.00079989
0.03956968 -0.05390770 0.00018585
0.03994240 -0.05760080 -0.00002804
0.04582692 -0.06381678 -0.00031635
0.03709895 -0.05405548 -0.00005477
0.05258395 -0.06980620 -0.00001810
0.04300214 -0.04632509 0.00010767
0.04306785 -0.05835248 -0.00002541
0.05709471 -0.06696974 0.00095396
0.05667468 -0.06649946 0.00105919
0.04938412 -0.06941781 -0.00078904
0.03444867 -0.05119660 -0.00010927
0.04478338 -0.06522738 -0.00071114
0.04628067 -0.06165107 0.00023239
0.05789380 -0.06839605 0.00102679
0.05646280 -0.06986024 0.00051620
0.05005624 -0.06942286 -0.00072827
0.03849411 -0.05022054 0.00059556
0.04676712 -0.06736313 -0.00091850
0.05190754 -0.07094719 -0.00036375
0.03723702 -0.05672224 -0.00024931
0.03785784 -0.05409228 0.00017321
0.05317235 -0.06100149 0.00077324
0.03973096 -0.05316270 0.00031511
0.04610346 -0.06009335 0.00022589
0.05345837 -0.06410773 0.00087610
0.05219013 -0.07241540 -0.00067971
0.04455379 -0.06506515 -0.00065825
0.05006187 -0.06835417 -0.00020851
0.04369358 -0.05005733 0.00060637
0.04127174 -0.04313210 0.00000814
0.04605711 -0.06089233 0.00037031
0.04270737 -0.05306324 0.00048686
0.04778154 -0.06853609 -0.00100499
0.05028241 -0.06365225 0.00041180
0.03188689 -0.05096631 -0.00002590
0.05632849 -0.06713502 0.00094088
0.04146598 -0.05719573 0.00025837
0.04393763 -0.05132094 0.00049521
0.05612966 -0.07080830 0.00066615
0.03813395 -0.05514872 0.00011773
0.04864363 -0.06940421 -0.00075229
0.04823704 -0.05722136 0.00073108
0.03419280 -0.05123870 0.00014153
0.03755649 -0.05007431 0.00061491
0.05323940 -0.06422591 0.00060052
0.05211456 -0.06401795 0.00066438
0.05034929 -0.05750762 0.00072954
0.03981528 -0.04853022 0.00038944
0.05225479 -0.06266709 0.00070965
0.03882842 -0.05853473 -0.00047278
0.04483789 -0.06339692 -0.00050669
0.03882977 -0.05657750 -0.00005927
0.04260994 -0.04580558 0.00011206
0.04547943 -0.05046582 0.00048011
0.05332384 -0.06952275 0.00022785
0.03885776 -0.04813323 0.00059006
0.05558456 -0.06920543 0.00058556
0.04374708 -0.05265336 0.00060752
0.04534860 -0.05644326 0.00035445
0.03735566 -0.05129975 0.00052836
0.03891881 -0.05307068 0.00041237
0.05398077 -0.07131604 0.00009679
0.04290248 -0.04692868 0.00019818
0.03874408 -0.04941412 0.00064188
0.04951588 -0.06063947 0.00075960
0.03994967 -0.05149891 0.00054527
0.04469917 -0.05677196 0.00055058
0.04688813 -0.05371837 0.00057208
0.05114247 -0.07105899 -0.00065670
0.04115807 -0.05173963 0.00035961
0.04490716 -0.05762892 0.00039832
0.05546946 -0.06448438 0.00093009
0.04191998 -0.06164588 -0.00056478
0.05447972 -0.06928234 0.00039263
0.04578528 -0.06341341 -0.00034394
0.04502152 -0.05261917 0.00046591
0.04875802 -0.05767868 0.00057712
0.03841873 -0.04876411 0.00030923
0.04323838 -0.04635170 0.00014243
0.04913293 -0.05515611 0.00059769
0.03627056 -0.04977846 0.00019114
0.04335306 -0.04644940 0.00020508
0.04388722 -0.06257002 -0.00054289
0.05013186 -0.06222693 0.00047145
0.04632862 -0.05407391 0.00058012
0.05611645 -0.06550279 0.00086420
0.04172394 -0.05010886 0.00042992
0.03732333 -0.04961708 0.00034450
0.04883769 -0.05460605 0.00064334
0.04616827 -0.05106090 0.00045712
0.04725114 -0.06498389 -0.00037524
0.05190932 -0.06242597 0.00073851
0.05042696 -0.07143628 -0.00089213
0.05647610 -0.06882115 0.00071387
0.03493719 -0.04926827 0.00023037
0.05202814 -0.06109138 0.00088586
0.05183595 -0.07134830 -0.00043795
0.04881600 -0.06477124 0.00000464
0.04065704 -0.05297774 0.00030127
0.04870121 -0.05544870 0.00062488
0.03454205 -0.04911271 0.00019214
0.05179883 -0.06461090 0.00050542
0.04716142 -0.06028876 0.00024421
0.04613128 -0.05811701 0.00066086
0.04390185 -0.05219298 0.00056765
0.04168038 -0.06165450 -0.00066789
0.05257417 -0.06508694 0.00051276
0.05506871 -0.06601998 0.00076043
0.04532695 -0.06263038 -0.00035103
0.04706410 -0.06776796 -0.00091111
0.04977873 -0.06739422 -0.00001446
0.04858535 -0.06887655 -0.00068913
0.04042528 -0.05310513 0.00028021
0.05043147 -0.05851683 0.00063818
0.03982607 -0.04922894 0.00066119
0.05308762 -0.07161708 -0.00039591
0.03511853 -0.05352526 -0.00002280
0.04748158 -0.05609383 0.00066577
0.03758749 -0.04858102 0.00034338
0.03501125 -0.04831898 0.00047213
0.04638618 -0.05641215 0.00047393
0.03554728 -0.04976730 0.00009549
0.05018463 -0.06199600 0.00060957
0.04053052 -0.05916247 -0.00018798
0.04050262 -0.05056455 0.00063102
0.04552799 -0.04957260 0.00035058
0.03700961 -0.05101396 0.00026606
0.03407639 -0.05322795 -0.00023688
0.04214903 -0.04904697 0.00054338
0.04717953 -0.05944336 0.00049260
0.04768691 -0.05876170 0.00045578
0.04538200 -0.06074321 0.00001960
0.04404151 -0.06110079 -0.00024348
0.04791811 -0.06850546 -0.00089807
0.05466540 -0.07182025 0.00011754
0.05616653 -0.06803917 0.00079792
0.05138605 -0.05846782 0.00069374
0.05548628 -0.06674165 0.00075489
0.05201951 -0.06188658 0.00075875
0.04260603 -0.06094944 -0.00046582
0.05563996 -0.06794851 0.00072100
0.03469656 -0.05249843 -0.00007265
0.05387144 -0.06983242 0.00011150
0.03770676 -0.05691106 -0.00033761
0.03877868 -0.05085055 0.00053010
0.04867081 -0.05426983 0.00045675
0.03872058 -0.05807273 -0.00037195
0.04061331 -0.05341800 0.00061008
0.04279723 -0.04826626 0.00029398
0.04746698 -0.05489269 0.00059705
0.05113702 -0.06719358 0.00026903
0.04701250 -0.05183066 0.00043685
0.04290512 -0.05732878 0.00044254
0.04663050 -0.06071113 0.00020926
0.04113792 -0.04603323 0.00023446
0.04445394 -0.06369393 -0.00049468
0.04028828 -0.04808280 0.00058626
0.04227376 -0.05320977 0.00039000
0.03448034 -0.04967384 0.00004121
0.05317662 -0.07048329 -0.00010100
0.05229010 -0.06850473 0.00005619
0.05629440 -0.07079435 0.00073368
0.05485497 -0.06629567 0.00080921
0.04066655 -0.05809174 -0.00002999
0.05592578 -0.06521046 0.00094920
0.05339805 -0.06210382 0.00070302
0.03521942 -0.05443464 -0.00024324
0.03632106 -0.05578930 -0.00028310
0.03299137 -0.05222358 -0.00019257
0.04208245 -0.04882332 0.00036850
0.05200537 -0.06601494 0.00030476
0.04794421 -0.05471029 0.00061520
0.05317237 -0.07273652 -0.00059242
0.04908178 -0.06483430 0.00019489
0.03911923 -0.05569465 0.00016417
0.04778064 -0.05666558 0.00059517
0.03534745 -0.05479341 -0.00021902
0.05688548 -0.06982916 0.00071143
0.04093933 -0.04566578 0.00035483
0.05618261 -0.06783740 0.00073310
0.04356299 -0.05470147 0.00060966
0.05275769 -0.06856026 0.00027424
0.04292966 -0.04721431 0.00020068
0.04663475 -0.06453617 -0.00015586
0.05024827 -0.06611703 0.00004364
0.04032475 -0.05971748 -0.00068589
0.05305432 -0.06801224 0.00045029
0.04262584 -0.05373136 0.00035713
0.04988910 -0.07015781 -0.00075344
0.05679345 -0.06675296 0.00097332
0.04249530 -0.06220898 -0.00046643
0.05670460 -0.06646389 0.00094518
0.04958852 -0.06966064 -0.00074064
0.03735130 -0.05709624 -0.00039426
0.05315388 -0.06102421 0.00077416
0.04871433 -0.06255404 0.00030706
0.03437786 -0.05356326 -0.00020431
0.03420016 -0.05347772 -0.00023997
0.04575520 -0.05649783 0.00053373
0.05129238 -0.07232200 -0.00102525
0.04084164 -0.05508723 0.00015352
0.05044478 -0.06348855 0.00064984
0.05065862 -0.06775492 -0.00020016
0.03581671 -0.04953997 0.00054557
0.03498234 -0.04870495 0.00049998
0.04366079 -0.05021664 0.00043569
0.03842638 -0.05121519 0.00056066
0.04104977 -0.05859586 -0.00029921
0.03681996 -0.05179594 0.00033802
0.04447844 -0.05597594 0.00041981
0.04115278 -0.05329507 0.00067426
0.05746967 -0.06742914 0.00100842
0.04115860 -0.04722412 0.00043634
0.03584105 -0.04985323 0.00019418
0.03762593 -0.05076666 0.00011633
0.03265583 -0.05169018 -0.00011390
0.04602975 -0.05016339 0.00035790
0.03461842 -0.05379197 -0.00023098
0.03759444 -0.05298306 0.00036304
0.03416260 -0.04898766 0.00018852
0.03354955 -0.05266023 -0.00003306
0.04183141 -0.06189038 -0.00067759
0.04610243 -0.05395071 0.00066184
0.04378875 -0.05526515 0.00054528
0.04168164 -0.05976853 -0.00021678
0.04465498 -0.06002820 -0.00001344
0.04102840 -0.06110819 -0.00067415
0.04708227 -0.05570139 0.00061147
0.04478978 -0.05890899 0.00038814
0.04312879 -0.05916630 -0.00005045
0.04162397 -0.05012453 0.00046645
0.04283418 -0.04694873 0.00029450
0.05175359 -0.05893405 0.00080027
0.04525873 -0.04897617 0.00025218
0.03320950 -0.05192748 0.00000205
0.04355668 -0.05553549 0.00032633
0.05232574 -0.06746675 0.00036633
0.03948111 -0.04607043 0.00030867
0.03947071 -0.05655622 -0.00019215
0.04723773 -0.06797716 -0.00091072
0.03976053 -0.05630901 -0.00017774
0.04295796 -0.05884945 0.00021945
0.04477135 -0.06269791 -0.00009557
0.04235624 -0.05739460 0.00039058
0.04865300 -0.06951567 -0.00089277
0.04143666 -0.05967908 -0.00037670
0.03895677 -0.05520768 -0.00006927
0.04245930 -0.05164384 0.00034860
0.04110266 -0.04930885 0.00043134
0.05183113 -0.07296664 -0.00110490
0.04769704 -0.06052404 0.00040075
0.04228789 -0.05191349 0.00036222
0.04597962 -0.05385918 0.00046306
0.03535212 -0.04977027 0.00043791
0.04629343 -0.05710810 0.00073227
0.04500216 -0.06102163 -0.00014885
0.04197973 -0.05868605 -0.00016259
0.04279574 -0.05823316 0.00031515
0.03334256 -0.04947257 0.00040095
0.04128198 -0.05510281 0.00043681
0.03871780 -0.05796976 -0.00040273
0.04420175 -0.05924387 0.00016461
0.03538959 -0.05018036 0.00041286
0.04582800 -0.06227961 -0.00009552
0.04091147 -0.05469681 0.00040652
0.05265964 -0.07333056 -0.00076817
0.05702968 -0.06997724 0.00077370
0.05530442 -0.06432729 0.00081577
0.03966211 -0.05541802 0.00001571
0.05467972 -0.06408310 0.00086495
0.04933652 -0.06975976 -0.00074558
0.05791724 -0.06829621 0.00106196
0.03877861 -0.05683937 -0.00010726
0.04994438 -0.06968382 -0.00058297
0.04379365 -0.04977068 0.00051757
0.04872837 -0.06738664 -0.00032981
0.05085549 -0.07146135 -0.00084435
0.03712999 -0.05200567 0.00049102
0.04354879 -0.05260239 0.00057099
0.05147815 -0.06249720 0.00058569
0.04583550 -0.06511647 -0.00049386
0.04784244 -0.05306506 0.00055433
0.03257228 -0.05017996 0.00002055
0.04386119 -0.04806833 0.00034970
0.05014818 -0.05839045 0.00066846
0.04886979 -0.06780144 -0.00033099
0.04996907 -0.06784179 -0.00004008
0.04849163 -0.06509938 -0.00010712
0.04837536 -0.06675532 -0.00057344
0.04055962 -0.04559030 0.00017713
0.04700765 -0.06557537 -0.00020601
0.04704479 -0.05688567 0.00069809
0.04967447 -0.05611087 0.00064242
0.03976028 -0.04760495 0.00047318
0.04390846 -0.04800609 0.00018579
0.05198823 -0.06768648 0.00035898
0.04917331 -0.05496841 0.00065196
0.04129115 -0.06121766 -0.00061697
0.05452652 -0.06917776 0.00044415
0.04083619 -0.05253966 0.00047182
0.05486014 -0.06574015 0.00084144
0.04448935 -0.05727124 0.00048497
0.04426865 -0.04771651 0.00030636
0.05402333 -0.06373159 0.00082996
0.04804881 -0.05871952 0.00062724
0.03563860 -0.04947910 0.00054884
0.04579661 -0.05043506 0.00038086
0.03465184 -0.05101039 0.00028709
0.04914555 -0.05587019 0.00066411
0.04863846 -0.06763762 -0.00062702
0.03827563 -0.04828709 0.00037857
0.04544165 -0.06375351 -0.00048005
0.04899593 -0.05855714 0.00046545
0.04213760 -0.05815247 0.00012802
0.04576232 -0.05569212 0.00062234
0.03615629 -0.05534776 -0.00038111
0.03637924 -0.05417567 0.00008220
0.04275350 -0.04544511 0.00016401
0.04543859 -0.06386698 -0.00050860
0.03962851 -0.05837703 -0.00051975
0.03702394 -0.05527349 -0.00006300
0.03596903 -0.05164526 0.00006548
0.03332830 -0.05241885 -0.00014647
0.05160037 -0.05919249 0.00065596
0.05548518 -0.06679891 0.00078950
0.04956559 -0.06302546 0.00049351
0.03658616 -0.05127145 0.00039079
0.03737219 -0.04688875 0.00060317
0.04986697 -0.07088434 -0.00098378
0.03640006 -0.05181136 0.00021390
0.04747044 -0.05633843 0.00070276
0.04153816 -0.04342819 -0.00000272
0.03619899 -0.05146611 0.00020928
0.05025096 -0.06086018 0.00061427
0.03993935 -0.05725122 0.00003747
0.04989412 -0.07067663 -0.00099740
0.05020548 -0.06430528 0.00047195
0.03706987 -0.04699166 0.00063101
0.04288195 -0.05152105 0.00040507
0.05354146 -0.07169107 -0.00005851
0.05304328 -0.06442354 0.00066546
0.03819194 -0.05318910 0.00009169
0.05170206 -0.06223891 0.00071900
0.05123804 -0.06715798 0.00004383
0.04275277 -0.05200512 0.00040389
0.03297899 -0.05134195 0.00005662
0.04498269 -0.04887588 0.00029091
0.04119703 -0.05223551 0.00056750
0.04387679 -0.05859340 0.00034115
0.04812531 -0.05668912 0.00063651
0.04819185 -0.05441413 0.00051484
0.04929387 -0.05880327 0.00068499
0.03406842 -0.05083489 0.00031417
0.04321269 -0.05829118 0.00036727
0.05369272 -0.06846570 0.00036959
0.04082952 -0.06087262 -0.00054281
0.04219575 -0.04879182 0.00032575
0.03933624 -0.05244522 0.00015683
0.04729699 -0.05312873 0.00042958
0.04088869 -0.05925333 -0.00018442
0.03834785 -0.05045546 0.00049528
0.03997252 -0.04648572 0.00047705
0.05018854 -0.06792468 -0.00010157
0.03998303 -0.05750488 0.00006407
0.04880493 -0.06194492 0.00060999
0.04301789 -0.05533689 0.00054952
0.03530431 -0.05467812 -0.00035763
0.03362726 -0.05278467 -0.00020009
0.03813342 -0.04864980 0.00033647
0.04513955 -0.06283999 -0.00030075
0.03926624 -0.05125783 0.00030141
0.05425763 -0.06423075 0.00078468
0.05075497 -0.06022146 0.00072434
0.04235167 -0.05071517 0.00036782
0.04590229 -0.06144600 0.00000226
0.05021133 -0.06450003 0.00019932
0.05439096 -0.06552117 0.00075845
0.05631234 -0.06944141 0.00058662
0.05581630 -0.06910888 0.00066960
0.05151515 -0.06520968 0.00057004
0.05103395 -0.05977504 0.00074929
0.04217833 -0.06228260 -0.00058407
0.05271174 -0.06033982 0.00077740
0.04298638 -0.06214721 -0.00055937
0.04117276 -0.05508960 0.00016629
0.05016886 -0.07024929 -0.00081352
0.04824872 -0.06022496 0.00061410
0.04159927 -0.05167633 0.00056830
0.05445177 -0.06571027 0.00085564
0.04650118 -0.06209294 0.00019838
0.04352580 -0.06380869 -0.00069465
0.03953614 -0.05381825 0.00015680
0.04885455 -0.06704475 -0.00042168
0.05315594 -0.06215240 0.00081311
0.04401881 -0.05423055 0.00052465
0.04276556 -0.06200823 -0.00055773
0.03976748 -0.04704821 0.00051996
0.04861209 -0.05723087 0.00058553
0.04056938 -0.04502996 0.00021669
0.03660436 -0.04719119 0.00057183
0.04573061 -0.04983703 0.00038548
0.04054973 -0.04626270 0.00025349
0.05525537 -0.06913314 0.00060077
0.04602253 -0.05030002 0.00043254
0.04194706 -0.05157382 0.00039080
0.04023314 -0.04871742 0.00034798
0.05307951 -0.07215478 -0.00024551
0.04009827 -0.05574918 0.00000518
0.05222188 -0.06315326 0.00065149
0.03723235 -0.04768601 0.00060048
0.04055997 -0.05947693 -0.00031510
0.04885694 -0.06607871 0.00006793
0.03967910 -0.05640590 0.00006898
0.03635660 -0.04932107 0.00019740
0.05449547 -0.06304031 0.00100602
0.04725677 -0.05532303 0.00045547
0.04707998 -0.05709096 0.00049817
0.04288136 -0.05239658 0.00043322
0.05042056 -0.05691675 0.00066274
0.04204062 -0.05657544 0.00017126
0.04003349 -0.05707085 0.00010428
0.03714392 -0.05575625 -0.00040066
0.03818192 -0.05442897 -0.00010453
0.05712446 -0.06711414 0.00104792
0.05133273 -0.06675192 0.00026009
0.04499684 -0.06264270 -0.00003911
0.04432449 -0.06283220 -0.00022920
0.05225201 -0.06395699 0.00055074
0.04471163 -0.04908344 0.00027701
0.05717018 -0.06860189 0.00096167
0.04781166 -0.05690735 0.00069920
0.05409169 -0.06551158 0.00084337
0.05095057 -0.06767155 -0.00012514
0.03779948 -0.05739704 -0.00039493
0.05013746 -0.06543717 0.00012553
0.05156529 -0.06954585 -0.00033851
0.05032769 -0.06948179 -0.00045156
0.04435735 -0.06466706 -0.00079154
0.05267225 -0.06546969 0.00052358
0.04585830 -0.06388157 -0.00039822
0.04493620 -0.05256752 0.00046932
0.04453200 -0.05482539 0.00059857
0.04439971 -0.06265130 -0.00045551
0.04252913 -0.05885731 0.00020894
0.04468709 -0.05214093 0.00058566
0.05370632 -0.06229014 0.00084444
0.03730940 -0.05163347 0.00010167
0.04153649 -0.05029065 0.00050993
0.04422463 -0.05251107 0.00048661
0.05475881 -0.07044242 0.00025882
0.04896628 -0.06448133 0.00007609
0.04962646 -0.05764641 0.00065879
0.05220363 -0.06724237 0.00026961
0.03963318 -0.05945946 -0.00045228
0.04661203 -0.06572672 -0.00025145
0.03762786 -0.05113043 0.00040565
0.04477305 -0.06306390 -0.00017554
0.05214077 -0.06769820 0.00015850
0.05596020 -0.06954711 0.00057151
0.04815649 -0.06809004 -0.00076072
0.04251796 -0.04514299 0.00011655
0.05093086 -0.07103559 -0.00075115
0.05570776 -0.06743928 0.00076730
0.03653432 -0.05595189 -0.00039065
0.04344491 -0.06378263 -0.00069180
0.04643768 -0.05581599 0.00056877
0.05244212 -0.06085660 0.00085179
0.03905211 -0.05869621 -0.00044883
0.05586756 -0.06511950 0.00091488
0.05103164 -0.06052503 0.00059566
0.05267164 -0.06336803 0.00078224
0.04046999 -0.04712808 0.00043813
0.03771596 -0.05103085 0.00035051
0.04383979 -0.05898863 0.00037529
0.04441255 -0.06072991 -0.00006495
0.03676933 -0.05359361 -0.00012869
0.05224611 -0.06969115 0.00008817
0.04419975 -0.06354498 -0.00039352
0.04719779 -0.06376764 -0.00010291
0.03281330 -0.05174166 -0.00009530
0.05113113 -0.07044793 -0.00065729
0.04224932 -0.05573158 0.00042535
0.04472241 -0.05600006 0.00055701
0.05343742 -0.06597218 0.00051740
0.05116153 -0.07170694 -0.00089940
0.05445079 -0.06796595 0.00046900
0.05234989 -0.06598446 0.00041716
0.05186684 -0.06740958 0.00016275
0.05023844 -0.07130798 -0.00096176
0.04952424 -0.07011965 -0.00083371
0.05227733 -0.06641085 0.00061241
0.03853819 -0.05831288 -0.00044317
0.04370273 -0.05666172 0.00033454
0.05029904 -0.06495322 0.00031973
0.03812458 -0.05497150 -0.00010910
0.05386442 -0.06405353 0.00086331
0.03371805 -0.04881355 0.00005761
0.03859791 -0.04723299 0.00057240
0.04745945 -0.05350431 0.00044809
0.03400095 -0.05013222 0.00033301
0.04770718 -0.06300865 0.00009430
0.04709897 -0.06060169 0.00028490
0.05078050 -0.07185759 -0.00096223
0.04579932 -0.06546732 -0.00046169
0.04144345 -0.04335388 -0.00000287
0.05265141 -0.06794381 0.00014728
0.04606115 -0.06550109 -0.00068097
0.05022542 -0.06641895 0.00014445
0.05715763 -0.06699211 0.00095724
0.04282758 -0.06001848 0.00002515
0.03499981 -0.05195107 0.00000709
0.04137190 -0.05370582 0.00030104
0.04574118 -0.05148735 0.00048166
0.04405809 -0.06156439 -0.00029527
0.04400815 -0.05670185 0.00027497
0.03960096 -0.05733822 -0.00003757
0.03630544 -0.05574792 -0.00034000
0.04173128 -0.04466974 0.00013263
0.05606951 -0.06708579 0.00086486
0.05534840 -0.06423759 0.00093103
0.05496926 -0.06773540 0.00081090
0.04369410 -0.05253044 0.00054343
0.04325780 -0.06080034 -0.00027361
0.04676603 -0.05445713 0.00044201
0.05478252 -0.06621695 0.00078977
0.03721365 -0.05673422 -0.00039290
0.04876197 -0.06489809 0.00019686
0.05122510 -0.06744544 0.00031562
0.05148638 -0.07230113 -0.00090204
0.05132864 -0.07039098 -0.00031696
0.05225014 -0.06670755 0.00030670
0.04301393 -0.05021465 0.00067526
0.04914055 -0.05477848 0.00059857
0.03986040 -0.04988954 0.00062537
0.05200189 -0.06235997 0.00069278
0.03930414 -0.05772395 -0.00041353
0.04824879 -0.06905556 -0.00094723
0.04203613 -0.04433368 0.00003385
0.04774939 -0.06084860 0.00036508
0.04446854 -0.06487489 -0.00080941
0.04497642 -0.06395431 -0.00050804
0.03783519 -0.05752608 -0.00043214
0.04766709 -0.06259970 0.00019133
0.04297004 -0.05843807 -0.00003571
0.05706267 -0.06690487 0.00093821
0.04938068 -0.05884402 0.00079344
0.04190109 -0.05304377 0.00058657
0.03970228 -0.05961226 -0.00045027
0.04824963 -0.06438672 0.00027044
0.05033345 -0.06218994 0.00068696
0.04060017 -0.06057086 -0.00054293
0.04346863 -0.06376141 -0.00068552
0.04299306 -0.05854507 0.00003968
0.05443562 -0.06877658 0.00042173
0.05092677 -0.06463950 0.00036625
0.05016233 -0.06780916 -0.00023343
0.04115688 -0.05379561 0.00030394
0.04811058 -0.06332712 0.00011684
0.04722287 -0.06427119 -0.00022189
0.05017705 -0.05660810 0.00073080
0.04719974 -0.05334862 0.00058058
0.05014805 -0.06558596 0.00014977
0.05298106 -0.07281231 -0.00076138
0.05639247 -0.06832936 0.00080639
0.04361767 -0.05898188 0.00002812
0.05518770 -0.07157217 0.00014433
0.05216778 -0.07147949 -0.00049526
0.05510652 -0.06849927 0.00072890
0.04182025 -0.04414587 0.00006432
0.05340704 -0.06924304 0.00031532
0.03623116 -0.05482455 -0.00029209
0.04423764 -0.05411243 0.00053488
0.04670207 -0.06564874 -0.00042099
0.04721328 -0.06685936 -0.00051284
0.04392968 -0.05607816 0.00036155
0.04479569 -0.05703807 0.00045269
0.03862742 -0.05492437 -0.00005123
0.03763799 -0.05439277 0.00018209
0.04254904 -0.06049031 -0.00036379
0.04140609 -0.04333376 0.00005421
0.04569408 -0.05664653 0.00044775
0.03898503 -0.04895160 0.00060034
0.03981141 -0.04957072 0.00036632
0.05189081 -0.06506006 0.00043325
0.05315509 -0.06263045 0.00082293
0.04541257 -0.05994647 0.00016827
0.04254853 -0.04904625 0.00035183
0.04975518 -0.06674021 -0.00002295
0.05244521 -0.06359209 0.00062845
0.04628612 -0.06054907 0.00042833
0.05531004 -0.06452541 0.00098880
0.04190541 -0.05789271 -0.00002698
0.04564930 -0.05028757 0.00028899
0.05569123 -0.07085434 0.00032923
0.05335290 -0.07011988 0.00006325
0.05283189 -0.06866950 0.00017268
0.05465911 -0.06477729 0.00092815
0.04141444 -0.05803946 0.00008701
0.05555489 -0.07090495 0.00044756
0.04629066 -0.06477443 -0.00060915
0.04123284 -0.04681463 0.00034358
0.03859165 -0.05340161 0.00000403
0.05106623 -0.05985672 0.00073833
0.05365618 -0.06275095 0.00071819
0.05297708 -0.06083653 0.00088479
0.04252486 -0.05546370 0.00054699
0.04998765 -0.07053116 -0.00084844
0.05278619 -0.07310592 -0.00085509
0.04964965 -0.05869823 0.00074533
0.03646228 -0.05270019 0.00000316
0.05397629 -0.07139242 -0.00018623
0.05242841 -0.06414791 0.00071916
0.04569325 -0.04978233 0.00040600
0.04439265 -0.06212786 -0.00027302
0.03684348 -0.05363818 0.00023199
0.04848426 -0.06183891 0.00042107
0.05641738 -0.06720847 0.00099020
0.03371350 -0.05259689 -0.00007914
0.04266493 -0.04910429 0.00036533
0.05361840 -0.07257629 -0.00016722
0.03903996 -0.05728886 -0.00033911
0.04404766 -0.05097655 0.00047419
0.05254726 -0.07057573 -0.00034250
0.04209118 -0.05616650 0.00038970
0.04693658 -0.06623485 -0.00047336
0.04764428 -0.05738304 0.00054107
0.05567224 -0.06462676 0.00092237
0.04313480 -0.05783910 0.00033819
0.05379478 -0.07091284 -0.00009862
0.05537487 -0.06883836 0.00075881
0.05551552 -0.06952508 0.00064346
0.04339832 -0.06351750 -0.00074241
0.05786359 -0.06839104 0.00096287
0.04256253 -0.06080424 -0.00048710
0.03781862 -0.04987099 0.00023874
0.05781966 -0.06841529 0.00095603
0.05150705 -0.06740682 0.00028614
0.05208115 -0.07128721 -0.00032103
0.04662830 -0.05120701 0.00047114
0.03809875 -0.05506648 -0.00010555
0.04516636 -0.04908684 0.00037699
0.04511623 -0.06512170 -0.00070511
0.04525277 -0.06580831 -0.00077455
0.03680486 -0.05176585 0.00011756
0.04928886 -0.05660546 0.00071405
0.05470932 -0.06894387 0.00060585
0.04175679 -0.05983505 -0.00017135
0.04214740 -0.05023838 0.00055117
0.05454226 -0.07004651 0.00051430
0.05106244 -0.05788517 0.00073326
0.03254462 -0.05098516 0.00015514
0.05027354 -0.07129593 -0.00100904
0.05193033 -0.06942522 -0.00030203
0.04747829 -0.06012150 0.00042476
0.05229833 -0.06196214 0.00072304
0.04569684 -0.06172564 0.00025417
0.03901715 -0.05573109 0.00012471
0.04154726 -0.04740647 0.00041118
0.05010076 -0.07106303 -0.00092766
0.05481672 -0.06989208 0.00025217
0.05045675 -0.06644187 0.00026816
0.05023510 -0.07019502 -0.00087639
0.04469973 -0.04814618 0.00038263
0.03761652 -0.05257438 0.00034913
0.04692434 -0.05205432 0.00035842
0.04708115 -0.06346769 0.00008749
0.03763598 -0.04931581 0.00067414
0.05240590 -0.06930991 0.00014203
0.05062254 -0.06310261 0.00045165
0.04364229 -0.06123473 -0.00005292
0.04395152 -0.05220559 0.00058127
0.05370715 -0.06262179 0.00090965
0.04846378 -0.06934967 -0.00086875
0.04625561 -0.06552911 -0.00049085
0.05282661 -0.06044667 0.00079810
0.05570008 -0.06615377 0.00082489
0.05011345 -0.06440651 0.00050156
0.05801309 -0.06826449 0.00106810
0.03354859 -0.04935071 0.00010972
0.04136689 -0.04968834 0.00058920
0.05231034 -0.06747488 0.00047854
0.05688126 -0.06725030 0.00088562
0.03956633 -0.05685287 0.00001671
0.05286422 -0.06054525 0.00071460
0.04642222 -0.05090677 0.00040093
0.04138715 -0.04332296 0.00001824
0.03263959 -0.05178293 -0.00006978
0.04831951 -0.06907754 -0.00089617
0.04555490 -0.05623586 0.00054318
0.03993725 -0.05180987 0.00028046
0.05421768 -0.07181798 0.00013008
0.03688336 -0.05464208 -0.00004435
0.03421887 -0.05138107 0.00020929
0.05163875 -0.07251472 -0.00098533
0.04241390 -0.06119732 -0.00056135
0.05390204 -0.06492201 0.00086516
0.04447059 -0.04818641 0.00029818
0.05338278 -0.07280292 -0.00057334
0.05169658 -0.06362512 0.00071788
0.05367092 -0.06878807 0.00026633
0.05136142 -0.06019107 0.00079669
0.04675030 -0.05340576 0.00052211
0.04678290 -0.05792241 0.00049022
0.04342785 -0.05307766 0.00034732
0.04293934 -0.06313250 -0.00076799
0.04006287 -0.04849750 0.00041383
0.04876894 -0.05733867 0.00059192
0.03491472 -0.05336708 -0.00009187
0.05152856 -0.06655289 0.00023634
0.03714364 -0.05574289 -0.00021560
0.03777155 -0.05610390 -0.00033434
0.04438072 -0.05684054 0.00053591
0.05645604 -0.06648446 0.00108491
0.04763682 -0.05620020 0.00070646
0.04944200 -0.05683582 0.00068187
0.04063290 -0.05873404 -0.00019442
0.05040084 -0.06962595 -0.00044600
0.04036895 -0.05033914 0.00065880
0.04769471 -0.05291621 0.00050905
0.04790815 -0.05632141 0.00061119
0.04808480 -0.06893770 -0.00091066
0.04914290 -0.05552464 0.00056158
0.05107348 -0.06793058 0.00002078
0.04079525 -0.04805767 0.00031432
0.05743511 -0.06740163 0.00098113
0.04323391 -0.05377860 0.00061029
0.03501832 -0.05258016 0.00011160
0.05678546 -0.06674784 0.00101416
0.04847158 -0.05472542 0.00057845
0.05136764 -0.07046584 -0.00046554
0.04154683 -0.05361262 0.00038997
0.04807784 -0.05343482 0.00049886
0.05746261 -0.06759835 0.00102045
0.04006430 -0.04791564 0.00049799
0.03932179 -0.05614368 -0.00009634
0.04062679 -0.05623343 0.00021353
0.04560815 -0.05103457 0.00039938
0.03699967 -0.05642546 -0.00021239
0.04763104 -0.05282482 0.00045543
0.04129919 -0.04421636 0.00008908
0.05103776 -0.06635096 0.00046164
0.05221376 -0.06635019 0.00038270
0.05135806 -0.06033951 0.00072138
0.05837696 -0.06896378 0.00097934
0.05232982 -0.06026562 0.00065958
0.05047982 -0.06640204 0.00010309
0.04763402 -0.06058235 0.00033022
0.04278186 -0.05575763 0.00049744
0.04979224 -0.06488889 0.00042183
0.03395927 -0.05321785 -0.00017942
0.03966271 -0.05191395 0.00058397
0.04880921 -0.06599318 -0.00022474
0.03761569 -0.05044863 0.00057859
0.05233268 -0.06169618 0.00075671
0.05105037 -0.06266580 0.00075481
0.05229245 -0.06322315 0.00065549
0.03907627 -0.05725486 -0.00003856
0.05005403 -0.06372456 0.00056094
0.03631927 -0.04712921 0.00061020
0.05610519 -0.06753700 0.00088305
0.04376251 -0.04700449 0.00023955
0.04181235 -0.04423520 0.00009948
0.05541272 -0.07033076 0.00054221
0.04290211 -0.05491009 0.00021616
0.05612913 -0.06968415 0.00074317
0.03428127 -0.05239561 0.00009109
0.05010655 -0.07118469 -0.00094031
0.04475839 -0.05320980 0.00057528
0.04008869 -0.04959178 0.00055258
0.05186607 -0.06600039 0.00037567
0.05296009 -0.06990829 0.00024248
0.05347036 -0.07063519 -0.00000072
0.04961372 -0.05571874 0.00061038
0.04112777 -0.05498716 0.00036412
0.05168214 -0.06461212 0.00048550
0.05199341 -0.05910682 0.00080665
0.04967902 -0.06923165 -0.00050855
0.04997213 -0.07062624 -0.00085420
0.04178913 -0.06204006 -0.00070167
0.04432918 -0.04794569 0.00029983
0.03267556 -0.05170923 -0.00009184
0.04619243 -0.06307544 0.00003574
0.04336010 -0.04665116 0.00020661
0.04877661 -0.06524026 0.00012837
0.05530547 -0.06421573 0.00085541
0.04260151 -0.06174432 -0.00055799
0.04260225 -0.04972572 0.00043405
0.04879613 -0.05436315 0.00060658
0.05253116 -0.06854796 0.00016345
0.04095225 -0.05497134 0.00049314
0.05514400 -0.06665088 0.00078629
0.04698644 -0.06449095 -0.00033098
0.03708778 -0.05461145 -0.00018027
0.05479325 -0.06346832 0.00095008
0.04619539 -0.06187733 0.00025800
0.04894968 -0.06951557 -0.00089144
0.03700874 -0.04772053 0.00059849
0.03937613 -0.04610290 0.00031376
0.03977796 -0.05941975 -0.00040344
0.04789452 -0.05914032 0.00058251
0.04805599 -0.05690292 0.00040460
0.05182472 -0.05903508 0.00078280
0.04141513 -0.06136313 -0.00061872
0.04117483 -0.05241034 0.00032596
0.05599036 -0.06558848 0.00089934
0.04527810 -0.05676303 0.00054287
0.04821278 -0.06762356 -0.00052499
0.05299241 -0.07049476 0.00006162
0.04548730 -0.05902333 0.00022043
0.04386934 -0.05184179 0.00046263
0.05654379 -0.06608236 0.00090312
0.05167848 -0.06567650 0.00051571
0.03684029 -0.05227883 0.00041377
0.03600728 -0.05223880 0.00027987
0.04290900 -0.05084268 0.00060425
0.04045036 -0.05904797 -0.00020040
0.04182923 -0.04631648 0.00029552
0.04192629 -0.05340298 0.00039247
0.04377144 -0.05005244 0.00051151
0.03467351 -0.05205047 0.00011416
0.05226591 -0.06316403 0.00054741
0.05568368 -0.06481897 0.00100104
0.04396019 -0.05467942 0.00043020
0.04072694 -0.06071755 -0.00059801
0.04008086 -0.04829827 0.00023535
0.05257052 -0.06679718 0.00054971
0.04145854 -0.04808926 0.00045530
0.04756225 -0.05986102 0.00040740
0.05383076 -0.06192498 0.00084508
0.03895613 -0.05831699 -0.00053742
0.03586051 -0.05472633 -0.00024615
0.03734809 -0.04649131 0.00052512
0.04985501 -0.06050888 0.00057436
0.03450287 -0.04935608 0.00042546
0.04972218 -0.05601796 0.00075690
0.05376067 -0.06362778 0.00086816
0.05023442 -0.07125983 -0.00085533
0.04277863 -0.05868678 0.00024615
0.04522311 -0.06078457 0.00024811
0.05067539 -0.05988591 0.00086318
0.03743731 -0.04741966 0.00035714
0.05189511 -0.06339355 0.00071744
0.04981419 -0.06331589 0.00060664
0.04050123 -0.05880803 -0.00015883
0.05166275 -0.06662396 0.00018450
0.03477614 -0.05341166 -0.00021860
0.04975221 -0.06451163 0.00037573
0.04620660 -0.05960887 0.00049264
0.04422493 -0.04764789 0.00021613
0.04915890 -0.06264169 0.00026823
0.03953642 -0.05095497 0.00034431
0.05427028 -0.06263763 0.00091564
0.04512500 -0.06422439 -0.00034105
0.04543543 -0.05964235 0.00013374
0.05005305 -0.07108702 -0.00101531
0.04560260 -0.06546284 -0.00077611
0.04766146 -0.06664787 -0.00066911
0.04150893 -0.04368481 0.00009654
0.04128845 -0.04854781 0.00042095
0.04114536 -0.05186616 0.00050957
0.05096481 -0.06628221 0.00012740
0.05263467 -0.06500845 0.00056158
0.05226434 -0.05977906 0.00075879
0.03574515 -0.05159663 0.00012537
0.05313364 -0.06397283 0.00075090
0.04003370 -0.05606349 -0.00000839
0.03538761 -0.05488804 -0.00030730
0.05332373 -0.06340322 0.00074645
0.04384863 -0.06422154 -0.00078895
0.05125832 -0.06120908 0.00058457
0.04434093 -0.05867788 0.00012009
0.04862533 -0.05945963 0.00048541
0.03983423 -0.05118772 0.00029601
0.03840809 -0.05362155 0.00033657
0.04849630 -0.06219135 0.00049934
0.03985818 -0.04615284 0.00046437
0.04409552 -0.04736746 0.00020917
0.04784286 -0.05883308 0.00048629
0.05482735 -0.07037137 0.00047976
0.05457865 -0.06317958 0.00087477
0.05268359 -0.06645594 0.00062075
0.04922133 -0.06248451 0.00043629
0.04134814 -0.04530084 0.00017256
0.04911003 -0.05902318 0.00055628
0.05806322 -0.06841669 0.00104416
0.05291937 -0.06976551 0.00014560
0.04850081 -0.05384083 0.00058738
0.04481481 -0.05789059 0.00025494
0.04649238 -0.05516048 0.00057297
0.05636389 -0.06599078 0.00085741
0.03710456 -0.05438378 -0.00011221
0.05216801 -0.07319783 -0.00106455
0.05149090 -0.07160176 -0.00086379
0.04260686 -0.04898463 0.00043594
0.03824853 -0.05467307 -0.00002299
0.03973836 -0.05716772 -0.00030899
0.05546674 -0.06846757 0.00063830
0.05585014 -0.07057924 0.00045203
0.04089563 -0.04519647 0.00018696
0.04590358 -0.05263142 0.00058504
0.05130244 -0.07097491 -0.00066127
0.03657533 -0.05610901 -0.00034330
0.04183283 -0.05802241 0.00018186
0.04331553 -0.04874377 0.00046116
0.05510335 -0.06929855 0.00060364
0.04609157 -0.05714600 0.00062025
0.04597368 -0.06051538 0.00035192
0.04394184 -0.05097507 0.00051305
0.03643995 -0.04851353 0.00023035
0.04660526 -0.05712852 0.00047508
0.05690599 -0.06667733 0.00102204
0.04942987 -0.06889088 -0.00071205
0.05437808 -0.07103408 0.00001044
0.04524294 -0.06244424 -0.00022458
0.03648916 -0.04940837 0.00057477
0.04935553 -0.05614308 0.00075044
0.04614554 -0.06352580 -0.00035805
0.03562258 -0.05377043 -0.00014176
0.04843587 -0.06496502 -0.00018140
0.04624953 -0.05045050 0.00040973
0.04316650 -0.05731315 0.00043648
0.05161760 -0.07168659 -0.00064235
0.04159540 -0.05219349 0.00042497
0.04994361 -0.06541706 0.00013229
0.04380956 -0.04970255 0.00051461
0.04663239 -0.05297536 0.00051705
0.05167169 -0.06318336 0.00072848
0.04795503 -0.06647973 -0.00032482
0.05047198 -0.05704531 0.00067808
0.05291234 -0.06287521 0.00080200
0.03638320 -0.05491167 -0.00025852
0.03772042 -0.05076899 0.00058539
