ply
format ascii 1.0
element vertex 1396
property float x
property float y
property float z
end_header
-0.03344532 0.03896355 0.00029779
-0.05499841 0.05777049 0.00063214
-0.02897678 0.04109331 -0.00008457
-0.03856531 0.04022065 0.00067033
-0.04350294 0.05248979 -0.00022168
-0.04392173 0.05487024 -0.00082460
-0.04487912 0.05227513 0.00001519
-0.03840770 0.03631089 0.00059285
-0.05403664 0.06044679 -0.00024365
-0.04464590 0.04591836 0.00070602
-0.04400403 0.04396992 0.00058720
-0.04855235 0.04440939 0.00086604
-0.05199630 0.05841904 0.00016247
-0.05578228 0.06091705 0.00039142
-0.04398787 0.04511307 0.00049312
-0.04485566 0.05342649 -0.00047044
-0.04783772 0.05827916 -0.00093706
-0.05600119 0.06188656 0.00000629
-0.02973511 0.04178243 -0.00012339
-0.04427629 0.05541266 -0.00088744
-0.05512069 0.05279479 0.00088767
-0.05129974 0.06205396 -0.00110057
-0.03995932 0.03284245 0.00021407
-0.05419595 0.05064722 0.00092580
-0.05839394 0.05619569 0.00103141
-0.05512269 0.05194042 0.00096230
-0.05349131 0.05607831 0.00069193
-0.05468231 0.06195874 -0.00011288
-0.05282120 0.05150961 0.00071454
-0.05197416 0.05219375 0.00062677
-0.04507395 0.05080042 0.00032429
-0.03274800 0.04170520 0.00025245
-0.05747256 0.06053296 0.00065881
-0.04165409 0.04957490 -0.00019602
-0.04118242 0.04347310 0.00069133
-0.04606401 0.05315376 0.00004125
-0.03773753 0.04280080 0.00056155
-0.04651301 0.04637326 0.00073676
-0.04198157 0.05076186 -0.00021946
-0.04339607 0.05471726 -0.00079641
-0.05044895 0.04867652 0.00070452
-0.05149587 0.06208636 -0.00112102
-0.04316049 0.03981265 0.00054020
-0.04691925 0.05635538 -0.00077380
-0.03428624 0.03369930 0.00068303
-0.03837434 0.04422157 0.00011047
-0.04065624 0.03387085 0.00017810
-0.04138296 0.05044380 -0.00035671
-0.05394720 0.06330623 -0.00083673
-0.04971522 0.06024949 -0.00102167
-0.04397645 0.05476570 -0.00080975
-0.05131004 0.05068751 0.00083660
-0.03389056 0.03579045 0.00036971
-0.04948671 0.05974280 -0.00069835
-0.04919378 0.05086314 0.00044802
-0.04336455 0.03947870 0.00046344
-0.05259000 0.05183479 0.00080410
-0.05459409 0.06060652 0.00017988
-0.03660308 0.03938973 0.00072107
-0.05135411 0.06174309 -0.00099044
-0.04902596 0.05624405 -0.00006799
-0.04025784 0.03444124 0.00030569
-0.03217421 0.03857498 0.00060077
-0.04565307 0.04219205 0.00062941
-0.04429334 0.04739112 0.00052323
-0.04534708 0.03941064 0.00054618
-0.05063494 0.05342318 0.00047242
-0.04775670 0.05332263 0.00023966
-0.06020770 0.06034285 0.00094770
-0.03861145 0.03765643 0.00066826
-0.04059987 0.04044537 0.00069501
-0.04705550 0.05374889 -0.00013152
-0.04782648 0.05676545 -0.00035462
-0.03683334 0.04665450 -0.00046002
-0.05374411 0.05348117 0.00084455
-0.05386119 0.05003335 0.00088486
-0.05315323 0.06370928 -0.00107246
-0.03905549 0.04898055 -0.00049219
-0.04511144 0.04370728 0.00054720
-0.04287595 0.03793413 0.00050586
-0.05658808 0.05874780 0.00069533
-0.04427172 0.04548127 0.00046279
-0.05762021 0.06171576 0.00057702
-0.04127917 0.04734477 0.00037730
-0.03299111 0.04164109 0.00027406
-0.04309436 0.05415283 -0.00071060
-0.03811833 0.03051820 -0.00002833
-0.04566731 0.04324119 0.00073728
-0.05818562 0.06115788 0.00044383
-0.04532768 0.04010562 0.00053825
-0.06065909 0.05855845 0.00121942
-0.05865628 0.05973372 0.00074543
-0.03297030 0.04036883 0.00013759
-0.05294695 0.06211144 -0.00083182
-0.05798716 0.06040313 0.00056419
-0.04781407 0.05070241 0.00071410
-0.04212894 0.03748680 0.00045345
-0.05195800 0.05693724 0.00032922
-0.04671977 0.05700185 -0.00074217
-0.05897994 0.05888185 0.00086987
-0.04994736 0.04567313 0.00073947
-0.05825425 0.05531997 0.00100941
-0.03857791 0.03504417 0.00052537
-0.05941400 0.06046447 0.00078974
-0.04597315 0.04483852 0.00076270
-0.05055738 0.05664196 -0.00009469
-0.03492251 0.03858308 0.00067831
-0.05499680 0.06502236 -0.00112906
-0.04221811 0.04818810 0.00001728
-0.03791168 0.04091112 0.00065692
-0.03252202 0.04461571 -0.00031698
-0.05051364 0.06134788 -0.00101212
-0.05467228 0.05983374 0.00023189
-0.05902507 0.05706535 0.00102647
-0.05328702 0.05605723 0.00043282
-0.04648620 0.05473701 -0.00034453
-0.05286781 0.05963165 -0.00001759
-0.05569083 0.05544894 0.00076866
-0.04514058 0.05636855 -0.00093978
-0.04994885 0.05548879 -0.00009792
-0.04059844 0.04937944 -0.00010715
-0.06065905 0.05942329 0.00112202
-0.05662085 0.05947677 0.00051833
-0.04080610 0.03919926 0.00054819
-0.05755241 0.05798762 0.00087684
-0.05322323 0.05750749 0.00020075
-0.03122713 0.03706130 0.00070507
-0.03598389 0.03343431 0.00036950
-0.05501186 0.05584261 0.00066228
-0.04049085 0.05071099 -0.00034959
-0.05038612 0.05501351 0.00020892
-0.04849705 0.04918534 0.00050046
-0.05143728 0.05937058 -0.00052152
-0.04486171 0.04708464 0.00043456
-0.04156531 0.04472707 0.00066208
-0.06003529 0.05997102 0.00105297
-0.04063579 0.05210286 -0.00068529
-0.03429011 0.03958951 0.00021088
-0.03328613 0.03833430 0.00058097
-0.04531714 0.04532312 0.00054718
-0.05418913 0.05226154 0.00087160
-0.04037312 0.04688491 0.00025040
-0.04353424 0.04398537 0.00055706
-0.05401944 0.06470320 -0.00114978
-0.04733755 0.05059367 0.00055250
-0.04378702 0.04694678 0.00026738
-0.03943251 0.05071189 -0.00077866
-0.05635131 0.05314460 0.00097351
-0.03172541 0.03866332 0.00060130
-0.04554440 0.05292448 -0.00033361
-0.03511550 0.04295681 0.00031901
-0.05319698 0.06337770 -0.00105568
-0.05422862 0.05860360 0.00041878
-0.05240616 0.05080824 0.00077136
-0.04796229 0.05899293 -0.00092514
-0.03083705 0.03910048 0.00003157
-0.04537306 0.05655875 -0.00092813
-0.03735899 0.04538009 0.00021746
-0.04004189 0.03322620 0.00014386
-0.05282072 0.04878887 0.00096534
-0.05433721 0.06247962 -0.00060177
-0.05449655 0.06176438 -0.00035416
-0.03537494 0.04722635 -0.00040984
-0.03368481 0.03730028 0.00024166
-0.05713927 0.05648687 0.00098089
-0.03627465 0.03451833 0.00054311
-0.04750217 0.05518301 -0.00036096
-0.04284277 0.05215950 -0.00049689
-0.04296550 0.03715724 0.00041363
-0.03975195 0.04882672 -0.00008942
-0.05438634 0.06480537 -0.00118971
-0.04649484 0.04551773 0.00080663
-0.04881193 0.04850608 0.00062688
-0.04101515 0.03933262 0.00066486
-0.04673169 0.05746580 -0.00074198
-0.05958780 0.06016151 0.00085340
-0.05702431 0.05430724 0.00103004
-0.03522384 0.03556270 0.00040926
-0.05320523 0.05756180 0.00051991
-0.03890834 0.04405097 0.00052763
-0.04599858 0.05146507 -0.00001560
-0.04062422 0.03677713 0.00039072
-0.05614406 0.05292034 0.00107390
-0.04520103 0.05450974 -0.00063174
-0.04838682 0.05582902 -0.00027605
-0.03165841 0.04045970 0.00004946
-0.05314023 0.06371976 -0.00103089
-0.05101077 0.05464809 0.00028599
-0.04359922 0.04937919 0.00031994
-0.04159657 0.05221434 -0.00054203
-0.05828708 0.06068272 0.00058876
-0.05161412 0.05534298 0.00023820
-0.05512837 0.06342130 -0.00070705
-0.04707202 0.04259784 0.00068243
-0.05479531 0.05604383 0.00058571
-0.04446893 0.04909058 0.00053958
-0.04288729 0.04602141 0.00064851
-0.04858506 0.04354028 0.00074048
-0.04115907 0.05048699 -0.00048654
-0.03825321 0.03237524 0.00020296
-0.04471838 0.05232197 0.00007779
-0.04794693 0.04943424 0.00043798
-0.04383688 0.04167456 0.00076151
-0.05537529 0.05409624 0.00087223
-0.04299008 0.05042036 -0.00016803
-0.04053989 0.03737080 0.00053622
-0.04157299 0.05304257 -0.00071774
-0.05678039 0.05978022 0.00071683
-0.04602145 0.05552203 -0.00061506
-0.04217617 0.04340675 0.00067219
-0.03829253 0.03845347 0.00068106
-0.03719032 0.03763769 0.00041025
-0.04956661 0.04687646 0.00079663
-0.05888059 0.05804740 0.00100565
-0.04105493 0.05240454 -0.00071509
-0.04528448 0.04535047 0.00049697
-0.05045626 0.04581419 0.00074914
-0.04885916 0.04393238 0.00067586
-0.04256125 0.05161667 -0.00015060
-0.05445665 0.05186891 0.00098202
-0.05079403 0.04687574 0.00084466
-0.04115981 0.03586693 0.00033960
-0.03595314 0.04030222 0.00052704
-0.03968277 0.03960512 0.00044313
-0.05382704 0.04983102 0.00096896
-0.04480692 0.04988413 0.00038306
-0.02841469 0.03972320 -0.00000242
-0.05246264 0.06013659 -0.00047814
-0.04641194 0.04208183 0.00069127
-0.04123655 0.04328083 0.00041499
-0.03712080 0.03426783 0.00033296
-0.03225110 0.04228359 0.00010436
-0.04834846 0.04323162 0.00070764
-0.04754305 0.04222241 0.00063303
-0.04100125 0.03493698 0.00031810
-0.04884858 0.05964060 -0.00108668
-0.05515818 0.06564800 -0.00120304
-0.03854090 0.03632190 0.00030513
-0.04040866 0.03999516 0.00069388
-0.04454977 0.04902308 0.00026818
-0.04844406 0.04867391 0.00074421
-0.03239557 0.03792437 0.00026313
-0.05375329 0.05703494 0.00059997
-0.03466868 0.03753764 0.00072738
-0.04476437 0.05306528 -0.00004667
-0.03708233 0.03882148 0.00066015
-0.05246155 0.05253900 0.00067020
-0.03515657 0.03474010 0.00059766
-0.03425389 0.04574284 -0.00046269
-0.04618747 0.05539976 -0.00031937
-0.04963331 0.05612884 -0.00020498
-0.04377042 0.05080995 0.00012522
-0.04996320 0.04833951 0.00088286
-0.04757160 0.04247637 0.00060718
-0.04383701 0.04881645 0.00017404
-0.04547162 0.04353629 0.00053874
-0.04848549 0.05943863 -0.00099815
-0.05228251 0.04847706 0.00083159
-0.03951506 0.04034566 0.00041152
-0.04498736 0.05075304 -0.00005460
-0.04163718 0.03704744 0.00039924
-0.04476799 0.04139819 0.00064747
-0.03724005 0.04661254 -0.00034246
-0.02878770 0.04097633 -0.00007870
-0.05176615 0.05059194 0.00087067
-0.04103047 0.03860065 0.00058585
-0.04291676 0.04123678 0.00062878
-0.04361262 0.05425249 -0.00075124
-0.04289142 0.03759429 0.00043536
-0.04062684 0.04913369 -0.00031965
-0.05561292 0.06079024 0.00028491
-0.04203972 0.03652556 0.00045770
-0.05034936 0.04859169 0.00077692
-0.05596150 0.05518788 0.00098096
-0.03937086 0.03217753 0.00007887
-0.03935017 0.05084078 -0.00070134
-0.03939081 0.03533675 0.00048246
-0.05013490 0.05957244 -0.00078182
-0.04488465 0.04655742 0.00048331
-0.03765653 0.03383188 0.00030882
-0.04030556 0.03335061 0.00018149
-0.04049179 0.04218370 0.00068783
-0.03690484 0.03709384 0.00063344
-0.03185707 0.03933080 0.00043278
-0.04278699 0.04103121 0.00053049
-0.05704597 0.05839504 0.00083343
-0.05148928 0.05260015 0.00077091
-0.05375017 0.05663366 0.00061558
-0.05809042 0.06261241 0.00012924
-0.03320985 0.04517599 -0.00028713
-0.04342333 0.05321870 -0.00062238
-0.03727491 0.04214754 0.00026216
-0.04243497 0.04958693 -0.00008165
-0.04857189 0.04342889 0.00068075
-0.03281033 0.03554047 0.00079644
-0.04389332 0.05386889 -0.00050427
-0.05266822 0.06009871 -0.00033148
-0.04541852 0.04206609 0.00064048
-0.03662365 0.03882304 0.00039545
-0.04480166 0.04943298 0.00020258
-0.04728439 0.05683432 -0.00074512
-0.04525617 0.05490965 -0.00043336
-0.05677488 0.05964980 0.00071531
-0.04892748 0.05006291 0.00059076
-0.03787164 0.04216462 0.00058372
-0.04420742 0.05488173 -0.00073367
-0.04564427 0.04235308 0.00070802
-0.05157005 0.06232421 -0.00104040
-0.05418688 0.05677102 0.00052800
-0.05582877 0.06051271 0.00013616
-0.04233535 0.04079232 0.00050984
-0.02947191 0.03968118 0.00001101
-0.04915477 0.04919810 0.00075852
-0.05450850 0.05881937 0.00049407
-0.04275517 0.05412353 -0.00080170
-0.04763402 0.05736935 -0.00062690
-0.04560524 0.05204760 -0.00010357
-0.03342566 0.03645237 0.00034465
-0.04003335 0.05142986 -0.00068671
-0.04631946 0.05407381 -0.00033836
-0.05364404 0.06240151 -0.00052946
-0.04189848 0.04140492 0.00048434
-0.05827163 0.05544643 0.00102918
-0.04277454 0.04955815 0.00032204
-0.05616040 0.06305932 -0.00004007
-0.03509246 0.04193258 0.00050959
-0.04761754 0.04293584 0.00066829
-0.03980375 0.04377790 0.00034347
-0.04261375 0.03781040 0.00039710
-0.03663229 0.03715969 0.00048467
-0.04450265 0.04196940 0.00060555
-0.05489986 0.05130834 0.00102147
-0.04713619 0.04842196 0.00070871
-0.04964554 0.04805143 0.00085449
-0.05344141 0.04949071 0.00093831
-0.04619907 0.05271514 -0.00013311
-0.04195011 0.04360917 0.00041549
-0.05409855 0.06391181 -0.00099898
-0.04757349 0.05168846 0.00031010
-0.05628404 0.06327539 -0.00025485
-0.06095907 0.06000779 0.00103792
-0.04602282 0.04793344 0.00052864
-0.04775512 0.04365916 0.00066805
-0.03988351 0.04678729 0.00003707
-0.04483905 0.04812950 0.00062035
-0.04928696 0.04434226 0.00071449
-0.04886350 0.05590911 -0.00026725
-0.05100211 0.05962984 -0.00064251
-0.03770196 0.04933678 -0.00052564
-0.03281994 0.04474762 -0.00039459
-0.04995674 0.05989125 -0.00081832
-0.04198715 0.04841431 0.00032108
-0.04474344 0.05514783 -0.00065999
-0.05557511 0.06385298 -0.00067532
-0.03207852 0.04333258 -0.00019689
-0.05297412 0.05120516 0.00082501
-0.05569147 0.05397376 0.00092576
-0.04874989 0.05868342 -0.00071598
-0.05208514 0.06275427 -0.00110255
-0.04003978 0.03445823 0.00031583
-0.05276960 0.05685118 0.00023560
-0.04208713 0.04283063 0.00048333
-0.04660754 0.04104250 0.00058914
-0.04195144 0.05177384 -0.00028560
-0.05290922 0.06096222 -0.00029100
-0.05069193 0.05388360 0.00030380
-0.03172810 0.04382564 -0.00026490
-0.03193212 0.03780257 0.00021548
-0.05638853 0.05317578 0.00099120
-0.04200252 0.03951558 0.00056829
-0.03897026 0.04792644 0.00005341
-0.05588503 0.06526857 -0.00099915
-0.04434068 0.05559454 -0.00082428
-0.04121879 0.03441120 0.00018434
-0.05779037 0.06128932 0.00048536
-0.04537126 0.05275424 -0.00018463
-0.03906631 0.03174819 0.00004546
-0.03451806 0.03566066 0.00067386
-0.04506752 0.04289409 0.00056223
-0.05018826 0.06103868 -0.00102937
-0.03757496 0.04913976 -0.00058564
-0.05764185 0.05815128 0.00089372
-0.04538917 0.05601108 -0.00073970
-0.04415118 0.05297336 -0.00053757
-0.04746485 0.04215039 0.00063114
-0.05055980 0.04678632 0.00082106
-0.03943279 0.05107704 -0.00058311
-0.05560782 0.06104498 0.00005168
-0.06039399 0.06116213 0.00084330
-0.05676146 0.05356532 0.00106612
-0.04217147 0.04775243 0.00035776
-0.03700238 0.04868775 -0.00058610
-0.04530646 0.05304419 -0.00026975
-0.05279297 0.04874149 0.00088340
-0.05415705 0.05621755 0.00051867
-0.05488017 0.05592709 0.00084098
-0.05616167 0.06292009 -0.00014337
-0.04832523 0.04339857 0.00065608
-0.04437289 0.03836934 0.00039581
-0.05417506 0.05694180 0.00072203
-0.05312950 0.04996480 0.00090775
-0.04057038 0.04255056 0.00044884
-0.03465831 0.03530081 0.00074265
-0.04440289 0.04833390 0.00054841
-0.03694747 0.04859635 -0.00058932
-0.05276327 0.05953503 0.00000302
-0.04995209 0.05913280 -0.00051994
-0.03298870 0.03803582 0.00063670
-0.04870042 0.05769818 -0.00035749
-0.04338916 0.05408407 -0.00077700
-0.04405658 0.03786712 0.00036448
-0.05630017 0.05289398 0.00106465
-0.04275196 0.03645285 0.00031837
-0.05857233 0.06173380 0.00067694
-0.05035575 0.04748882 0.00073963
-0.03886293 0.03886838 0.00062194
-0.04339610 0.03716443 0.00036590
-0.04976957 0.05789345 -0.00022901
-0.04855453 0.04817078 0.00064490
-0.03173905 0.04275436 -0.00002477
-0.03458132 0.03881996 0.00038282
-0.03788923 0.03881982 0.00073459
-0.05454291 0.06290729 -0.00048999
-0.05549651 0.05469179 0.00083287
-0.05157636 0.06224343 -0.00106079
-0.04590615 0.04351876 0.00064131
-0.05126654 0.06071590 -0.00079005
-0.05072329 0.04647567 0.00087435
-0.03462488 0.03982853 0.00025481
-0.03488419 0.03483145 0.00042923
-0.03323152 0.04226617 0.00017135
-0.04424232 0.03871010 0.00046832
-0.05981557 0.05736339 0.00109000
-0.05723561 0.05620562 0.00089466
-0.04092658 0.03575272 0.00043524
-0.05182963 0.06105885 -0.00052740
-0.03649394 0.03437194 0.00034943
-0.03829243 0.03463980 0.00037667
-0.04707170 0.04879225 0.00046877
-0.04625715 0.04989724 0.00057134
-0.02832467 0.04031727 0.00002705
-0.03653237 0.04781676 -0.00050711
-0.03427895 0.03586140 0.00066612
-0.05542417 0.05584891 0.00087408
-0.04864692 0.05955533 -0.00108864
-0.05208486 0.06241075 -0.00105691
-0.04176712 0.04074651 0.00053294
-0.03421927 0.03662420 0.00044794
-0.03938230 0.03222788 0.00016096
-0.03543934 0.03985882 0.00026948
-0.04327855 0.04311653 0.00062172
-0.05448599 0.06211664 -0.00032396
-0.05453372 0.05253348 0.00083789
-0.03779340 0.04600350 0.00015276
-0.05317985 0.06185857 -0.00066296
-0.05279104 0.04866711 0.00094180
-0.03586536 0.03811069 0.00037052
-0.04491570 0.05617020 -0.00089117
-0.05278522 0.05823578 0.00020391
-0.03649125 0.03483928 0.00043753
-0.04781447 0.05873403 -0.00099492
-0.05671972 0.05355366 0.00099780
-0.05598852 0.05253346 0.00101079
-0.05091332 0.05173475 0.00065354
-0.03149006 0.03863319 0.00061816
-0.03725690 0.03200831 0.00029817
-0.05565020 0.06131170 -0.00001709
-0.04008444 0.03944046 0.00062452
-0.05729402 0.05883350 0.00065159
-0.03775725 0.04916142 -0.00047205
-0.03825492 0.03714675 0.00063778
-0.03879744 0.04741174 -0.00021747
-0.04042033 0.04034780 0.00049528
-0.05836946 0.05565281 0.00098624
-0.05214952 0.04939326 0.00094610
-0.04688193 0.05276992 0.00029862
-0.06112046 0.05896500 0.00110167
-0.05558752 0.05782807 0.00051889
-0.03996094 0.03768521 0.00057713
-0.04699900 0.04984246 0.00039229
-0.05637530 0.05805761 0.00062601
-0.03118836 0.04309990 -0.00024878
-0.03726934 0.03691721 0.00070100
-0.05596973 0.05360835 0.00088476
-0.03087868 0.04287787 -0.00024650
-0.04904114 0.05967380 -0.00085640
-0.05493759 0.05912096 0.00041490
-0.05016930 0.05610657 -0.00007889
-0.04019681 0.05122378 -0.00071002
-0.05462082 0.05308722 0.00078801
-0.04215894 0.03598875 0.00035440
-0.03781955 0.03709846 0.00064093
-0.05295903 0.05247583 0.00080421
-0.05569236 0.06184391 -0.00011047
-0.05631454 0.05837133 0.00058258
-0.03881973 0.03141063 0.00006292
-0.04767120 0.05330721 0.00005222
-0.05666295 0.06283398 0.00005638
-0.04025451 0.03629959 0.00048481
-0.04472801 0.04871446 0.00054753
-0.05543613 0.06521322 -0.00088357
-0.04768406 0.04937405 0.00048310
-0.04542980 0.04964621 0.00028258
-0.03870684 0.03459211 0.00046155
-0.05074724 0.04638712 0.00081386
-0.04980681 0.05187963 0.00079012
-0.05932835 0.06040403 0.00086538
-0.04510067 0.05603099 -0.00086466
-0.05705963 0.05486995 0.00100059
-0.05158355 0.05866785 -0.00024382
-0.05068489 0.05251045 0.00064408
-0.04273889 0.03631486 0.00029563
-0.04393710 0.04140052 0.00054416
-0.04200940 0.05218932 -0.00068756
-0.05644819 0.05329857 0.00091403
-0.06110464 0.05878268 0.00115417
-0.04295661 0.04754785 0.00049611
-0.04279496 0.04398560 0.00051384
-0.04663100 0.04260186 0.00060210
-0.03952739 0.04472394 0.00018865
-0.04417629 0.04017381 0.00050046
-0.04759394 0.05862614 -0.00100565
-0.05360484 0.04997323 0.00089896
-0.05276907 0.06251708 -0.00098894
-0.04286169 0.04684511 0.00052953
-0.05499570 0.06548491 -0.00115688
-0.04753952 0.04395143 0.00069205
-0.03074031 0.04264313 -0.00025372
-0.03707868 0.04873785 -0.00049054
-0.04084788 0.04462019 0.00053915
-0.04464423 0.03864813 0.00044610
-0.04706710 0.04167160 0.00059354
-0.04722129 0.05401190 -0.00014182
-0.04040655 0.04659586 0.00034808
-0.04820769 0.05632124 -0.00044561
-0.05181938 0.05230640 0.00063272
-0.03549741 0.04724424 -0.00041328
-0.05083002 0.06041580 -0.00063890
-0.05140235 0.05149963 0.00067679
-0.04808999 0.05321205 0.00006310
-0.04956780 0.04946251 0.00056138
-0.04237513 0.05148787 -0.00050160
-0.03728981 0.03876798 0.00066273
-0.04103604 0.04609484 0.00012537
-0.05587662 0.06439100 -0.00041638
-0.05274417 0.05825549 0.00006301
-0.03488338 0.04601313 -0.00023020
-0.05981787 0.05737041 0.00110951
-0.03850572 0.04137865 0.00048856
-0.02972246 0.04111435 -0.00017891
-0.05296612 0.05011874 0.00091356
-0.04192359 0.05297349 -0.00075460
-0.04060516 0.03378918 0.00029874
-0.03525513 0.04548477 -0.00014069
-0.05648618 0.05825657 0.00087280
-0.05295484 0.06075764 -0.00024327
-0.03413979 0.03507265 0.00060841
-0.04075545 0.04091120 0.00068285
-0.05778974 0.05672445 0.00098334
-0.04409706 0.03789563 0.00040181
-0.03612007 0.03697912 0.00068655
-0.03394333 0.03727022 0.00035589
-0.04451907 0.04749040 0.00069619
-0.04680325 0.04557574 0.00053624
-0.05521417 0.06580964 -0.00114082
-0.03580236 0.04363928 -0.00005654
-0.04839933 0.04322858 0.00064562
-0.05736587 0.05939876 0.00083978
-0.05128349 0.06196186 -0.00119307
-0.05763449 0.05768276 0.00080793
-0.04079548 0.05084664 -0.00053723
-0.03226441 0.04247373 0.00003701
-0.05473357 0.05501256 0.00076677
-0.05621115 0.05625623 0.00083626
-0.04913047 0.05072487 0.00074083
-0.04083719 0.04508100 0.00030171
-0.04344916 0.03852450 0.00056777
-0.05599789 0.05335304 0.00100457
-0.04731235 0.04666456 0.00081174
-0.04104872 0.05227314 -0.00067746
-0.04126255 0.05120094 -0.00040017
-0.04901790 0.05999941 -0.00106209
-0.05806483 0.06133472 0.00052974
-0.05695378 0.06210239 0.00004304
-0.05366302 0.05122652 0.00083162
-0.05085235 0.05670607 0.00008754
-0.06102928 0.05929909 0.00113504
-0.04284046 0.03647556 0.00030459
-0.05183283 0.06046089 -0.00036968
-0.05378859 0.06365339 -0.00107692
-0.05818089 0.06017315 0.00074039
-0.05338946 0.05763198 0.00051013
-0.04332584 0.04829962 0.00039598
-0.05458488 0.06374160 -0.00097033
-0.05212474 0.04903734 0.00075470
-0.03228344 0.04190312 0.00024727
-0.04140892 0.04240922 0.00063293
-0.06008086 0.05830644 0.00112153
-0.05087587 0.05105035 0.00071674
-0.03191265 0.03839724 0.00063943
-0.05286443 0.05515737 0.00066059
-0.04596572 0.04051383 0.00059605
-0.05500815 0.05766139 0.00054150
-0.04502694 0.04479043 0.00079115
-0.03302309 0.04058026 0.00050414
-0.05465219 0.06080941 0.00002082
-0.05181828 0.06173430 -0.00070773
-0.03733094 0.04435220 0.00032265
-0.04541135 0.04223663 0.00052816
-0.05119101 0.05815414 -0.00024122
-0.05414611 0.05244422 0.00089813
-0.04559327 0.04108260 0.00056783
-0.05104876 0.05034612 0.00070964
-0.03765390 0.04921387 -0.00053921
-0.05059296 0.05035033 0.00073407
-0.04733527 0.05157234 0.00042690
-0.05147730 0.05312883 0.00081647
-0.03941329 0.04588361 0.00031870
-0.02778540 0.03990328 -0.00003574
-0.04023170 0.03328289 0.00016435
-0.05002135 0.05417218 0.00022925
-0.04901183 0.05872032 -0.00080293
-0.04621553 0.04917120 0.00037670
-0.03254955 0.04212587 0.00018914
-0.04861015 0.04762236 0.00077036
-0.04362730 0.03889787 0.00052575
-0.03359972 0.03734143 0.00072152
-0.04204271 0.05337843 -0.00081406
-0.04500102 0.05365581 -0.00020537
-0.03918428 0.04573998 0.00002979
-0.03142164 0.04178619 -0.00015322
-0.04742845 0.04269960 0.00063564
-0.03964911 0.03251962 0.00016312
-0.04031335 0.04471075 0.00042837
-0.05428066 0.06432527 -0.00109600
-0.05001358 0.06080817 -0.00101861
-0.03756398 0.03412922 0.00044200
-0.05289301 0.06348290 -0.00110295
-0.03945403 0.03340618 0.00025204
-0.05388918 0.06440055 -0.00118543
-0.04276681 0.04755549 0.00012079
-0.04897653 0.05473470 0.00022030
-0.03627938 0.04800408 -0.00055472
-0.04058154 0.05022261 -0.00014555
-0.05581642 0.06020453 0.00045846
-0.04598410 0.05670125 -0.00087148
-0.04132449 0.04134363 0.00069961
-0.05146838 0.05040590 0.00075154
-0.05876038 0.05604486 0.00115898
-0.03626597 0.03726420 0.00058939
-0.05173062 0.05414709 0.00042788
-0.03812557 0.03065352 -0.00002494
-0.03627018 0.04230756 0.00047643
-0.03653828 0.03867034 0.00040360
-0.05334474 0.06038102 -0.00034107
-0.04432531 0.03839004 0.00035610
-0.03851280 0.03723842 0.00062761
-0.03849767 0.03110261 0.00001696
-0.03724128 0.03599048 0.00037970
-0.04641053 0.04445724 0.00077077
-0.04488642 0.03957842 0.00045342
-0.04224230 0.03569957 0.00025928
-0.04047430 0.03763002 0.00055067
-0.04062303 0.04890279 0.00011652
-0.03601410 0.03960668 0.00039263
-0.03310662 0.04199083 0.00018618
-0.04031019 0.04904595 -0.00003211
-0.03530099 0.04638494 -0.00042712
-0.03605205 0.03305314 0.00024254
-0.05681015 0.05352921 0.00103898
-0.05203569 0.05413360 0.00077666
-0.05522290 0.06471853 -0.00107134
-0.03767783 0.04839639 -0.00044809
-0.05509748 0.06562714 -0.00121432
-0.03338261 0.04175665 0.00036276
-0.05810172 0.05525906 0.00102233
-0.03698114 0.03668551 0.00067264
-0.04664557 0.05024895 0.00034639
-0.04803520 0.05898945 -0.00098198
-0.05484986 0.05463841 0.00081564
-0.03992207 0.03290055 0.00016407
-0.04448842 0.04781070 0.00034426
-0.02814123 0.04025333 0.00004833
-0.03989929 0.05139572 -0.00075422
-0.03853718 0.04915184 -0.00027679
-0.03888791 0.05047110 -0.00080644
-0.05293538 0.05600652 0.00059926
-0.05446372 0.05079898 0.00099616
-0.04563992 0.05158215 -0.00001914
-0.05267385 0.05715305 0.00011912
-0.04012631 0.04123763 0.00037701
-0.04232130 0.04577725 0.00035691
-0.04272989 0.04525478 0.00068326
-0.04830314 0.05929241 -0.00092431
-0.04694410 0.04876420 0.00053674
-0.04794846 0.04348021 0.00068343
-0.05149956 0.05695985 0.00024538
-0.04012230 0.03720624 0.00043235
-0.03971834 0.03769319 0.00069793
-0.04208686 0.03590965 0.00037272
-0.03173804 0.03820364 0.00016456
-0.04562733 0.04357104 0.00072285
-0.04273343 0.04698446 0.00022594
-0.04398216 0.05003929 0.00037333
-0.04782772 0.05368408 0.00033166
-0.04477735 0.04983419 0.00004472
-0.05136810 0.05746452 -0.00015223
-0.05203476 0.05702834 0.00034005
-0.05213660 0.05968349 -0.00023568
-0.04268387 0.04637526 0.00021890
-0.04870744 0.04430264 0.00066618
-0.04481378 0.04155227 0.00060791
-0.04329692 0.04955427 0.00029913
-0.03314088 0.04502577 -0.00029972
-0.04443145 0.05567627 -0.00083017
-0.03143853 0.03960173 0.00043611
-0.03400869 0.03973685 0.00059248
-0.03312005 0.04047515 0.00010223
-0.04759593 0.04784634 0.00062503
-0.03947278 0.03621594 0.00038187
-0.03276098 0.03841405 0.00067124
-0.04237690 0.03597089 0.00028112
-0.04258516 0.04627222 0.00060332
-0.05551825 0.05508516 0.00077571
-0.05051594 0.04901877 0.00073231
-0.04505577 0.04450139 0.00054322
-0.05051364 0.04994687 0.00070588
-0.05000233 0.05412486 0.00030874
-0.03706389 0.04877650 -0.00057600
-0.05054448 0.05018193 0.00076995
-0.03171657 0.04243927 0.00006894
-0.03408149 0.03806972 0.00037460
-0.05675884 0.06106987 0.00045300
-0.03566526 0.04222827 0.00008961
-0.04884024 0.04390442 0.00076909
-0.03874542 0.04096942 0.00068830
-0.03810601 0.04607510 -0.00012585
-0.03853042 0.04488252 0.00040808
-0.04008726 0.05031786 -0.00029750
-0.05468655 0.05697970 0.00050801
-0.03305541 0.03899958 0.00027037
-0.03782317 0.04766363 -0.00009713
-0.05445169 0.06019837 0.00002388
-0.03829690 0.04783604 -0.00009849
-0.05668486 0.05490338 0.00096099
-0.05615991 0.05663752 0.00086155
-0.04084473 0.03477143 0.00024672
-0.05610121 0.06487675 -0.00086650
-0.05252628 0.05441087 0.00042843
-0.05265096 0.05733798 0.00006890
-0.05759048 0.06224913 0.00016514
-0.04777727 0.04356155 0.00077978
-0.05813888 0.05810980 0.00096138
-0.04889300 0.05319912 0.00046787
-0.03814200 0.03397014 0.00044386
-0.05817217 0.05762134 0.00085955
-0.03516513 0.03542918 0.00069633
-0.05146299 0.05485556 0.00065216
-0.03324926 0.04333025 0.00013794
-0.05179026 0.05888522 -0.00003472
-0.05524076 0.06439660 -0.00084841
-0.05598492 0.05557497 0.00083178
-0.03917914 0.03767825 0.00056579
-0.02929078 0.03931988 0.00025738
-0.04100470 0.05080295 -0.00049171
-0.04692456 0.04644834 0.00059631
-0.04495508 0.04696493 0.00041668
-0.05304067 0.05191384 0.00075145
-0.04190372 0.04115812 0.00046839
-0.02808894 0.03968867 0.00003655
-0.04346802 0.04732847 0.00024844
-0.03686770 0.04544537 0.00011438
-0.04553311 0.05054598 0.00015196
-0.05387544 0.05657012 0.00062310
-0.03393064 0.03834209 0.00072309
-0.04014917 0.05112474 -0.00060326
-0.03700225 0.03751945 0.00063142
-0.03079850 0.04258636 -0.00030019
-0.04809775 0.04678427 0.00069325
-0.05717066 0.05891063 0.00088118
-0.04252745 0.03777778 0.00039459
-0.04187714 0.05321988 -0.00076247
-0.03080311 0.03901204 0.00012711
-0.03594003 0.03800476 0.00073250
-0.04353653 0.03803202 0.00034685
-0.05748924 0.05809296 0.00082234
-0.03938460 0.03924501 0.00073125
-0.03597672 0.04489260 -0.00020557
-0.05496486 0.05132787 0.00090570
-0.04639767 0.04905347 0.00069754
-0.05378158 0.06438802 -0.00112399
-0.03619455 0.04168067 0.00020625
-0.03831304 0.04776615 -0.00005100
-0.05502352 0.06423689 -0.00096767
-0.05200720 0.05789526 0.00017421
-0.05036546 0.05096447 0.00073567
-0.04556048 0.05551344 -0.00045565
-0.05250272 0.05009356 0.00085195
-0.03524857 0.03941969 0.00031605
-0.05054701 0.04831014 0.00078623
-0.05215660 0.06286110 -0.00108316
-0.05643976 0.05916643 0.00045109
-0.04427919 0.05025959 0.00034084
-0.04382166 0.04613866 0.00043545
-0.05051817 0.04595911 0.00084819
-0.04125231 0.05238562 -0.00061089
-0.03378078 0.03793327 0.00033896
-0.03556420 0.04718153 -0.00042304
-0.04229208 0.05007246 0.00013788
-0.03208575 0.04266942 -0.00025895
-0.03467237 0.03711265 0.00026121
-0.04797211 0.05453989 -0.00007372
-0.03845344 0.03104001 0.00014501
-0.04985278 0.04489075 0.00064439
-0.04588989 0.05412431 -0.00044371
-0.05768392 0.05473014 0.00098439
-0.04746764 0.05711272 -0.00074318
-0.05666236 0.05817072 0.00069574
-0.06142520 0.05954764 0.00118205
-0.04971760 0.06015827 -0.00082671
-0.05274927 0.06204115 -0.00077251
-0.03939046 0.04394675 0.00024854
-0.05888221 0.06147267 0.00068633
-0.05411766 0.05696311 0.00042563
-0.04276679 0.04124957 0.00048875
-0.03394178 0.04122599 0.00011742
-0.03943327 0.04898750 -0.00015719
-0.03664929 0.04076457 0.00063976
-0.03646578 0.04818140 -0.00046063
-0.03934453 0.04028448 0.00076433
-0.05669778 0.05827485 0.00060821
-0.03850595 0.03381210 0.00031793
-0.04505168 0.04491822 0.00060532
-0.05038050 0.06035941 -0.00088434
-0.05709563 0.06056543 0.00039855
-0.03930999 0.03496477 0.00038076
-0.03276948 0.03785980 0.00069398
-0.04128877 0.04217095 0.00041269
-0.03692946 0.04552813 0.00021881
-0.04193107 0.03736419 0.00051012
-0.04376698 0.04268457 0.00074150
-0.05875378 0.05700130 0.00104336
-0.04763170 0.05157707 0.00023433
-0.05182060 0.04759183 0.00094350
-0.03222808 0.04414996 -0.00033624
-0.03685083 0.04372565 0.00005704
-0.04016975 0.03630435 0.00035596
-0.04524768 0.04785196 0.00053411
-0.03911612 0.04839916 -0.00040749
-0.06105350 0.05869733 0.00114076
-0.04494359 0.04978209 0.00041663
-0.05490809 0.05452819 0.00076565
-0.05943858 0.06034774 0.00072165
-0.05146079 0.05560263 0.00022760
-0.03389085 0.03665282 0.00071786
-0.03812841 0.03753489 0.00043831
-0.05042894 0.05055177 0.00060107
-0.03819675 0.04052401 0.00060057
-0.04969723 0.05403992 0.00047441
-0.05371987 0.06421681 -0.00118101
-0.03681057 0.04439378 0.00027140
-0.04414192 0.05379358 -0.00032107
-0.05159989 0.05174025 0.00089656
-0.04032493 0.05179084 -0.00068895
-0.03815034 0.04213624 0.00060726
-0.04435227 0.05561073 -0.00088268
-0.03924236 0.04095511 0.00067327
-0.03889172 0.04896623 -0.00038852
-0.03917577 0.03181412 -0.00000265
-0.05326636 0.05316366 0.00085182
-0.05663314 0.05420368 0.00099195
-0.05644929 0.06180505 0.00026971
-0.04855652 0.05299792 0.00015935
-0.05123450 0.05919899 -0.00019910
-0.04999732 0.05013933 0.00071224
-0.05102469 0.04645555 0.00083300
-0.04719711 0.04391630 0.00075071
-0.03582328 0.04664925 -0.00046455
-0.03547935 0.04299460 0.00028162
-0.04888235 0.05272136 0.00032934
-0.05370079 0.05859414 0.00043027
-0.04887062 0.05334639 0.00020172
-0.04745419 0.05666738 -0.00044716
-0.04229245 0.05032131 0.00003097
-0.03770560 0.04245006 0.00049427
-0.05854798 0.05585288 0.00123142
-0.03609025 0.03553768 0.00039339
-0.05755252 0.05554413 0.00097733
-0.05250240 0.04864758 0.00080462
-0.03491985 0.04041307 0.00011328
-0.06014186 0.05782285 0.00120889
-0.05465841 0.05166653 0.00092625
-0.04222397 0.04304573 0.00043041
-0.05099171 0.05955429 -0.00066627
-0.06069374 0.05852434 0.00110522
-0.03283045 0.04142900 0.00028905
-0.03820449 0.03067141 0.00003448
-0.05021895 0.05644863 -0.00006974
-0.05779492 0.06309676 0.00021149
-0.04922223 0.04465489 0.00083043
-0.03913485 0.04361322 0.00024487
-0.03535922 0.04716825 -0.00047682
-0.02806265 0.04032221 -0.00000362
-0.05231924 0.05431695 0.00075846
-0.05427876 0.05414726 0.00082390
-0.03831434 0.04565500 0.00019865
-0.06067826 0.06099742 0.00108524
-0.05825942 0.05624240 0.00108642
-0.04323288 0.03730208 0.00046182
-0.04449330 0.05023369 0.00036908
-0.04100173 0.03411356 0.00019409
-0.04366389 0.03737401 0.00039177
-0.04417413 0.04758615 0.00035628
-0.05154162 0.06241089 -0.00107816
-0.04659352 0.05188674 0.00013007
-0.05115502 0.06093340 -0.00090155
-0.03410813 0.04054596 0.00052194
-0.04385164 0.04093455 0.00063926
-0.03642844 0.04809110 -0.00044906
-0.04716861 0.04288581 0.00069325
-0.04519107 0.04457682 0.00051998
-0.06159244 0.06015558 0.00115574
-0.03334693 0.04357226 -0.00021058
-0.03034563 0.04017864 0.00025263
-0.04665875 0.04225592 0.00066343
-0.04606804 0.05636814 -0.00085673
-0.06060899 0.05835245 0.00122957
-0.03664544 0.03367586 0.00038593
-0.04374808 0.03761487 0.00051376
-0.03412619 0.04536107 -0.00017894
-0.05645655 0.05732027 0.00088510
-0.05203614 0.06215605 -0.00111939
-0.04884167 0.05720362 -0.00058572
-0.03433535 0.04262895 -0.00003174
-0.04623869 0.05361718 -0.00029980
-0.04172026 0.05307406 -0.00089979
-0.04351238 0.03916702 0.00052889
-0.05686413 0.05576735 0.00093717
-0.03986882 0.03635133 0.00036311
-0.05430601 0.05637099 0.00049497
-0.04877976 0.05592665 -0.00025507
-0.04945311 0.05310321 0.00031074
-0.04717628 0.05796101 -0.00095083
-0.04485102 0.04897079 0.00052597
-0.05195638 0.04944040 0.00086648
-0.03609641 0.04788276 -0.00044939
-0.05180336 0.05819055 -0.00016926
-0.04456429 0.04299614 0.00047629
-0.04213229 0.05181468 -0.00068882
-0.03999844 0.03513349 0.00047801
-0.03518097 0.04030997 0.00030506
-0.03207422 0.04244178 -0.00025435
-0.04758074 0.04691133 0.00083166
-0.04280688 0.04503900 0.00068799
-0.03805685 0.04024986 0.00062913
-0.05873459 0.05626847 0.00107569
-0.03335025 0.03625535 0.00040823
-0.05413873 0.06261364 -0.00067975
-0.04437764 0.03836204 0.00038659
-0.04407762 0.04680356 0.00042082
-0.05969593 0.05734422 0.00122271
-0.03458755 0.04653907 -0.00042516
-0.04183284 0.04854115 -0.00011056
-0.04436310 0.05555075 -0.00083622
-0.05463526 0.06304956 -0.00041516
-0.03438111 0.04411977 0.00015588
-0.03784569 0.03522528 0.00044487
-0.03798839 0.04347689 0.00019002
-0.03792064 0.03034993 -0.00000831
-0.04959717 0.06047597 -0.00103518
-0.03988506 0.05063042 -0.00039157
-0.03988089 0.04873888 -0.00001234
-0.04230806 0.05365111 -0.00083894
-0.04143897 0.03899601 0.00060545
-0.05397022 0.05120550 0.00094858
-0.03868630 0.04543455 0.00013141
-0.04785583 0.05416314 0.00023106
-0.05876992 0.05609668 0.00104921
-0.03192758 0.03935240 0.00015126
-0.05122466 0.05428448 0.00058906
-0.05207637 0.05377686 0.00081716
-0.05397131 0.05021432 0.00100601
-0.02856411 0.03927860 0.00003823
-0.05502563 0.06305662 -0.00057922
-0.04948548 0.04979981 0.00059235
-0.05701991 0.05383035 0.00102047
-0.04280883 0.03640645 0.00040357
-0.03537808 0.03616172 0.00071902
-0.04259425 0.05184752 -0.00027009
-0.04518454 0.04592430 0.00067307
-0.03448496 0.03744575 0.00069633
-0.04636281 0.04447422 0.00056669
-0.04264931 0.04665044 0.00057823
-0.05678078 0.06401918 -0.00023767
-0.05030750 0.05042045 0.00054524
-0.03281777 0.04070709 0.00040613
-0.04330276 0.04524578 0.00067764
-0.04899694 0.05807936 -0.00046096
-0.03635696 0.04755471 -0.00047402
-0.05929742 0.05846553 0.00099555
-0.05381160 0.06333914 -0.00072529
-0.04587625 0.04006196 0.00051638
-0.03425531 0.03598875 0.00077246
-0.04748595 0.05001164 0.00046308
-0.03737638 0.04001585 0.00037334
-0.03229382 0.04380371 -0.00009022
-0.05109510 0.05136842 0.00065685
-0.04475994 0.04447548 0.00058990
-0.03180872 0.04011662 0.00015797
-0.05834107 0.05567071 0.00118337
-0.05898284 0.06129173 0.00051232
-0.05852375 0.05845347 0.00097566
-0.05913810 0.06176995 0.00075058
-0.03114520 0.04001954 0.00031718
-0.05663352 0.05341481 0.00101331
-0.04640815 0.05751049 -0.00092603
-0.05301064 0.06369457 -0.00114964
-0.05261680 0.04868019 0.00083216
-0.04023262 0.04811413 -0.00015458
-0.03251326 0.04228989 0.00019940
-0.05128598 0.05708477 0.00021111
-0.03788730 0.03528481 0.00036406
-0.04927465 0.05189852 0.00068347
-0.04723902 0.04236406 0.00065038
-0.03936075 0.04264041 0.00034181
-0.03853013 0.04150846 0.00037192
-0.05036666 0.05389251 0.00057543
-0.04689808 0.04900345 0.00068760
-0.04477654 0.05118891 -0.00007255
-0.03886751 0.03669492 0.00043139
-0.05702024 0.06162527 0.00021891
-0.05329291 0.04952781 0.00093545
-0.05456326 0.05540158 0.00069819
-0.05462288 0.06511058 -0.00118391
-0.03180724 0.04216575 0.00011353
-0.02932606 0.04135917 -0.00006081
-0.04457508 0.04048869 0.00051548
-0.05595512 0.05691430 0.00081201
-0.05337205 0.06349445 -0.00098817
-0.04975271 0.05390511 0.00023033
-0.05053180 0.05362933 0.00061082
-0.05530469 0.05331160 0.00099101
-0.03699950 0.04512111 -0.00008051
-0.05889821 0.05643546 0.00105900
-0.05155890 0.05790147 -0.00002915
-0.03434485 0.04296574 0.00034420
-0.05718978 0.06414865 -0.00014505
-0.05357177 0.06070204 -0.00006947
-0.04325177 0.04189134 0.00047693
-0.04039490 0.03343198 0.00023461
-0.05525673 0.05683042 0.00086161
-0.04299757 0.04732977 0.00055366
-0.05365798 0.05194742 0.00087253
-0.04081587 0.05204991 -0.00073804
-0.04920163 0.06007047 -0.00098384
-0.04649579 0.04100368 0.00062505
-0.04317772 0.04929808 0.00012352
-0.04143085 0.03466613 0.00018117
-0.04678033 0.05774342 -0.00093213
-0.05497242 0.05204079 0.00098345
-0.04405223 0.05101746 0.00020372
-0.05182525 0.05691987 0.00038661
-0.05691138 0.05984552 0.00068428
-0.04978157 0.05677119 -0.00021451
-0.05034767 0.06115210 -0.00111365
-0.03808491 0.03844555 0.00041113
-0.03565326 0.03538762 0.00069478
-0.03476681 0.03540105 0.00039280
-0.04776448 0.05181013 0.00020184
-0.04744638 0.05212133 0.00016875
-0.03554201 0.04696708 -0.00046388
-0.04855015 0.05801812 -0.00066200
-0.05207040 0.05465497 0.00048436
-0.03821893 0.03493844 0.00047762
-0.05511180 0.06278860 -0.00020219
-0.04428066 0.04493925 0.00044499
-0.03575371 0.04663560 -0.00035904
-0.03413602 0.04132591 0.00050294
-0.03484528 0.04666914 -0.00040237
-0.05685944 0.05360114 0.00098138
-0.05423659 0.06097121 -0.00022062
-0.04125253 0.03927305 0.00061961
-0.05396563 0.06043521 -0.00019605
-0.04391328 0.04021713 0.00053845
-0.04809623 0.04602797 0.00078548
-0.04030687 0.05167066 -0.00064373
-0.05644391 0.05311960 0.00110885
-0.02878613 0.04062573 -0.00013138
-0.04467866 0.05278322 -0.00045077
-0.04135595 0.03531668 0.00038027
-0.05005785 0.06012639 -0.00098721
-0.05887428 0.06233411 0.00056899
-0.05513648 0.05348279 0.00086998
-0.02937038 0.04052187 -0.00005005
-0.05394472 0.05323952 0.00093946
-0.03851371 0.03325728 0.00030792
-0.04517585 0.04879022 0.00030948
-0.05245383 0.05116606 0.00099628
-0.04855875 0.04347300 0.00064942
-0.05266872 0.05791364 0.00003445
-0.04404371 0.03796924 0.00045065
-0.04925481 0.05352690 0.00047295
-0.05306306 0.05712955 0.00032989
-0.03217231 0.04263408 -0.00027411
-0.05175376 0.04903703 0.00081478
-0.05240689 0.05663101 0.00026204
-0.04773502 0.05148329 0.00051810
-0.04397318 0.04091479 0.00058683
-0.04297977 0.05202256 -0.00028980
-0.03924438 0.05075979 -0.00064425
-0.04536892 0.04197629 0.00050618
-0.05687787 0.05416281 0.00095119
-0.05617088 0.06241528 0.00011644
-0.05088330 0.05725250 0.00022149
-0.05418821 0.05368576 0.00078713
-0.03978270 0.03294859 0.00015126
-0.03898268 0.04806554 0.00002894
-0.05182770 0.05269097 0.00093310
-0.04464362 0.04265270 0.00067934
-0.03137050 0.03926149 0.00011365
-0.05153070 0.04998363 0.00073943
-0.05806023 0.05646444 0.00103422
-0.04498387 0.05008815 0.00011071
-0.04364635 0.04081839 0.00044800
-0.04542435 0.04450461 0.00074184
-0.04799363 0.05848949 -0.00080426
-0.04439389 0.03838197 0.00055202
-0.04138719 0.05026278 -0.00004376
-0.05526826 0.05374128 0.00083406
-0.05043783 0.06005517 -0.00082949
-0.04336783 0.05465672 -0.00080429
-0.03838648 0.03480227 0.00045692
-0.05614133 0.06306391 -0.00037372
-0.03415233 0.03521637 0.00037832
-0.05446200 0.06053586 0.00013481
-0.05216351 0.05500155 0.00044250
-0.03960755 0.03541863 0.00035833
-0.03119321 0.03773982 0.00022037
-0.03404696 0.04112236 0.00050805
-0.05513847 0.06554989 -0.00121646
-0.03277257 0.03983098 0.00016869
-0.04826207 0.05513525 0.00005893
-0.03977143 0.04641242 0.00021790
-0.03675815 0.04815513 -0.00044172
-0.05433384 0.06467432 -0.00092242
-0.05398554 0.06144496 -0.00011390
-0.05252849 0.04998226 0.00089982
-0.05086577 0.04626528 0.00071474
-0.04911533 0.04408186 0.00065160
-0.04236793 0.03581181 0.00034268
-0.05844530 0.05562913 0.00104988
-0.05850281 0.05580465 0.00105684
-0.03823618 0.03082059 0.00003717
-0.02971601 0.04185317 -0.00015971
-0.04462467 0.05579762 -0.00090938
-0.04328140 0.03694694 0.00028521
-0.05668403 0.06368708 -0.00013827
-0.05453291 0.06198528 -0.00045593
-0.03418964 0.04556576 -0.00041681
-0.05176079 0.05870193 -0.00017194
-0.03755505 0.04590561 0.00016384
-0.04331448 0.04747168 0.00050947
-0.03729022 0.04483588 0.00023337
-0.05620046 0.06138812 0.00008396
-0.06023764 0.05803046 0.00116043
-0.03078495 0.04298198 -0.00024988
-0.03161375 0.04027524 -0.00002486
-0.05128233 0.06027422 -0.00049525
-0.03568948 0.03726521 0.00063316
-0.04212724 0.03746255 0.00042416
-0.05005714 0.05161590 0.00073251
-0.03893204 0.03865171 0.00043429
-0.06174861 0.05987262 0.00112563
-0.04515276 0.04881480 0.00022849
-0.04287221 0.05033521 -0.00022366
-0.05331091 0.06080517 -0.00018762
-0.04485614 0.05564200 -0.00074100
-0.04659478 0.05272362 -0.00001398
-0.03301043 0.03634562 0.00079213
-0.04754175 0.04227041 0.00065218
-0.05253090 0.05842195 0.00021561
-0.04251519 0.03647714 0.00032829
-0.05585840 0.06124024 0.00006240
-0.05340419 0.05525508 0.00084341
-0.04409897 0.05440835 -0.00055729
-0.05761988 0.05493961 0.00091765
-0.03799177 0.04311771 0.00019712
-0.04513406 0.04118606 0.00058883
-0.05097402 0.05468342 0.00036439
-0.05655938 0.05966837 0.00067851
-0.05112725 0.05425635 0.00037347
-0.05956326 0.05710376 0.00109881
-0.04162878 0.05300142 -0.00070012
-0.03889508 0.03680851 0.00035161
-0.03730627 0.03279438 0.00024037
-0.03537404 0.03736550 0.00041758
-0.03928240 0.04427521 0.00041475
-0.05257884 0.06311875 -0.00103590
-0.05372440 0.06379780 -0.00092201
-0.04111011 0.04534365 0.00054366
-0.05377848 0.05626333 0.00069242
-0.04713357 0.04310301 0.00067128
-0.03983082 0.04865217 -0.00004603
-0.05092081 0.05305960 0.00050150
-0.03861882 0.04817646 -0.00036454
-0.04177945 0.04924266 0.00018650
-0.04929528 0.05941246 -0.00090278
-0.03914571 0.03869303 0.00068235
-0.03877759 0.04933168 -0.00030684
-0.03640907 0.04641269 -0.00014523
-0.04989086 0.05228667 0.00063130
-0.05729016 0.05618964 0.00097109
-0.04814723 0.04642911 0.00073808
-0.05427837 0.05523778 0.00082182
-0.03790702 0.03101295 0.00005983
-0.03953099 0.03646371 0.00053437
-0.04006086 0.05133188 -0.00061718
-0.03005374 0.03807690 0.00013286
-0.04480943 0.05466620 -0.00050004
-0.03089795 0.03829939 0.00019265
-0.05939839 0.05934425 0.00086053
-0.03773294 0.04772261 -0.00035260
-0.04952823 0.05260655 0.00059246
-0.04408385 0.04282859 0.00058194
-0.03584912 0.04646755 -0.00043505
-0.03348121 0.04318323 -0.00019796
-0.05755792 0.05908409 0.00080673
-0.05738656 0.05697521 0.00093160
-0.04872222 0.04352124 0.00061941
-0.03584354 0.03438292 0.00036878
-0.05818870 0.05896358 0.00085019
-0.03590783 0.04774744 -0.00053934
-0.03276684 0.04293025 0.00008884
-0.04523105 0.05186857 0.00020069
-0.05431475 0.05070652 0.00097436
-0.04756730 0.05587262 -0.00051207
-0.04488028 0.03894215 0.00043231
-0.05036691 0.05301291 0.00072003
-0.05329696 0.05976525 -0.00017373
-0.05378664 0.05006997 0.00080001
-0.05532582 0.06572358 -0.00119789
-0.04171327 0.05204143 -0.00066648
-0.03308487 0.03783862 0.00028493
-0.03825780 0.03302478 0.00025485
-0.04962865 0.04521706 0.00070510
-0.04670197 0.05554415 -0.00060161
-0.05349643 0.06409085 -0.00111909
-0.06177285 0.05983431 0.00114030
-0.04095337 0.04965131 0.00003811
-0.04496136 0.05337211 -0.00040474
-0.04204624 0.05337060 -0.00071695
-0.04160199 0.03893540 0.00059266
-0.04168041 0.04721841 0.00037236
-0.04611913 0.05735490 -0.00093718
-0.04687724 0.05082768 0.00050495
-0.03168181 0.03940188 0.00010823
-0.05423946 0.05154431 0.00086168
-0.05638921 0.06145742 0.00034815
-0.05691645 0.05692070 0.00086278
-0.05324070 0.05662340 0.00045730
-0.05326094 0.05735908 0.00047961
-0.04587079 0.04570779 0.00072488
-0.04022669 0.04432749 0.00064312
-0.05007570 0.04534303 0.00076368
-0.06061002 0.05828387 0.00116950
-0.07079118 0.04304478 -0.00047777
-0.04922770 0.03031957 0.00008340
-0.07031763 0.04428081 -0.00104705
-0.06105187 0.03377924 0.00033636
-0.04899360 0.02369788 0.00038740
-0.07437560 0.04101335 0.00052049
-0.04576297 0.01840378 0.00000256
-0.04950697 0.02849442 0.00028308
-0.06233327 0.03583614 0.00010152
-0.06286734 0.04067772 -0.00101498
-0.06148353 0.03191163 0.00076708
-0.06670095 0.03092034 0.00101138
-0.04377412 0.02614675 0.00050672
-0.04589265 0.02243154 0.00041001
-0.04805176 0.01888384 0.00016765
-0.05844963 0.03818380 -0.00060724
-0.05883098 0.03886150 -0.00084598
-0.04705838 0.02498659 0.00031363
-0.06729384 0.04288173 -0.00104016
-0.04829794 0.03350472 -0.00029362
-0.07331023 0.03568067 0.00106627
-0.05992618 0.03887499 -0.00064415
-0.07294492 0.04544896 -0.00120687
-0.05342034 0.03010022 0.00051153
-0.05180679 0.02306762 0.00048670
-0.05249473 0.02665796 0.00055792
-0.05173827 0.02888406 0.00064565
-0.07235185 0.04513857 -0.00116805
-0.05409632 0.02821646 0.00064947
-0.06998198 0.04285002 -0.00079749
-0.07015953 0.04211931 -0.00031314
-0.05305439 0.02473591 0.00056901
-0.07024811 0.04426266 -0.00118357
-0.07141531 0.04289396 -0.00061016
-0.04729782 0.03129206 -0.00021854
-0.06471476 0.03246937 0.00080878
-0.03861285 0.02941164 -0.00003496
-0.06309530 0.03763773 0.00022432
-0.04462841 0.02488450 0.00079617
-0.06740888 0.03225028 0.00097774
-0.05687105 0.03462459 0.00013241
-0.05959072 0.03516595 -0.00000493
-0.07506805 0.03688295 0.00099615
-0.04454031 0.01967311 0.00025176
-0.07196572 0.03518239 0.00103395
-0.06935318 0.03327437 0.00092471
-0.07247220 0.04479627 -0.00114656
-0.06247822 0.03669974 0.00029400
-0.05305904 0.02211736 0.00043572
-0.05292431 0.02703106 0.00054569
-0.05785433 0.03721899 -0.00070944
-0.07159675 0.04112077 -0.00000035
-0.06974328 0.03579095 0.00067019
-0.04801594 0.02359207 0.00064596
-0.07549668 0.03708464 0.00114325
-0.04785504 0.03354786 -0.00048254
-0.04247550 0.02811554 0.00035970
-0.05220264 0.03488427 -0.00033541
-0.06468182 0.03350213 0.00082885
-0.05960285 0.03013569 0.00057826
-0.07023166 0.03319790 0.00098150
-0.05371681 0.03550814 -0.00053486
-0.05346778 0.02961170 0.00061999
-0.06278565 0.02943560 0.00083786
-0.06555060 0.04166325 -0.00087131
-0.07219258 0.03451339 0.00104591
-0.07452555 0.04075264 0.00033178
-0.04562054 0.03047495 0.00016060
-0.06835025 0.03781572 0.00032878
-0.04593010 0.02415701 0.00061323
-0.07114986 0.03377577 0.00096123
-0.07281229 0.03995579 0.00054132
-0.04459318 0.02792985 0.00051474
-0.04302361 0.02433371 0.00066544
-0.06591289 0.04017084 -0.00022394
-0.05881800 0.03567644 0.00006715
-0.06438192 0.03001627 0.00075169
-0.05664331 0.03471608 -0.00014815
-0.05709060 0.02522762 0.00058021
-0.05739256 0.02489194 0.00053460
-0.05728131 0.02669638 0.00063761
-0.04503574 0.02198147 0.00063439
-0.04253496 0.02768124 0.00017967
-0.06545391 0.04191844 -0.00102384
-0.05029708 0.03317137 -0.00004997
-0.06492796 0.04175311 -0.00095898
-0.07099713 0.03800717 0.00065876
-0.07495379 0.03631726 0.00108848
-0.04638920 0.02825761 0.00058903
-0.05873121 0.03192709 0.00063717
-0.07207072 0.04170170 -0.00021748
-0.05246899 0.03593157 -0.00060627
-0.05640314 0.02840381 0.00049897
-0.05370759 0.03647846 -0.00073950
-0.06278613 0.02872522 0.00073390
-0.04030063 0.02780971 0.00008809
-0.05568688 0.03167637 0.00029562
-0.05968609 0.02846720 0.00074480
-0.04852903 0.02027237 0.00028085
-0.05765935 0.03837783 -0.00077183
-0.04926850 0.03443875 -0.00044236
-0.05420575 0.03308325 -0.00003650
-0.04110782 0.02703492 0.00023329
-0.04648127 0.02465113 0.00048389
-0.06500565 0.03551059 0.00066889
-0.06196472 0.02855009 0.00072672
-0.07570174 0.03990522 0.00070666
-0.05269140 0.03087168 0.00015428
-0.04513658 0.03241039 -0.00029495
-0.06082637 0.03219536 0.00049903
-0.04901869 0.02158313 0.00036732
-0.05990110 0.02758651 0.00068374
-0.05247289 0.03142575 0.00052681
-0.05504269 0.02334070 0.00045573
-0.06938762 0.04234843 -0.00046248
-0.05440779 0.02911468 0.00041976
-0.04818302 0.02326047 0.00064129
-0.05832655 0.02823874 0.00062725
-0.04702770 0.02356583 0.00044039
-0.07226606 0.03926228 0.00062799
-0.05523265 0.03290388 0.00003017
-0.06453654 0.03897915 -0.00037087
-0.04861694 0.02940398 0.00058195
-0.06244931 0.03906135 -0.00065138
-0.04946879 0.02893058 0.00024736
-0.05495740 0.02904470 0.00076185
-0.05931471 0.02946463 0.00063047
-0.04756739 0.02883485 0.00051646
-0.04884625 0.02937185 0.00046529
-0.05282190 0.02651205 0.00047691
-0.07159318 0.03502176 0.00097686
