ply
format ascii 1.0
element vertex 1396
property float x
property float y
property float z
end_header
0.06079629 -0.03118659 0.00070368
0.06753390 -0.04534447 -0.00063304
0.06402155 -0.03538305 0.00068804
0.06299246 -0.04417251 -0.00063067
0.05000238 -0.02519435 0.00031212
0.06230822 -0.04251766 -0.00023875
0.04503186 -0.03011596 0.00065279
0.05925300 -0.03127076 0.00071489
0.05734698 -0.02863072 0.00045198
0.04726947 -0.03068854 0.00064610
0.06005013 -0.03196740 0.00070000
0.05651646 -0.03898492 -0.00008080
0.04441659 -0.02835193 0.00033187
0.05702292 -0.03905383 -0.00024725
0.04894007 -0.03288554 0.00020707
0.06163734 -0.04400881 -0.00078118
0.05243392 -0.03672981 -0.00017109
0.06059584 -0.04023845 -0.00002468
0.05646444 -0.02854830 0.00052694
0.06692556 -0.04686713 -0.00101260
0.05814432 -0.04167921 -0.00045493
0.04570671 -0.03520133 -0.00000024
0.04947507 -0.02421327 0.00025173
0.06200081 -0.04009414 0.00001690
0.05646119 -0.03289546 0.00053298
0.07561228 -0.04203214 0.00106611
0.06351409 -0.04394492 -0.00066364
0.06660878 -0.03796434 0.00083734
0.05242221 -0.02641004 0.00033444
0.06877387 -0.04788691 -0.00095283
0.07198996 -0.04812219 -0.00073446
0.05189856 -0.02493309 0.00024509
0.04263623 -0.03076395 0.00044943
0.04854043 -0.02871386 0.00034978
0.04647684 -0.02632383 0.00027745
0.07182653 -0.04599078 -0.00009515
0.04839967 -0.02372795 0.00030996
0.07128116 -0.03892155 0.00092437
0.04147400 -0.03325820 -0.00009721
0.04763762 -0.02941293 0.00055692
0.05406693 -0.03345231 0.00054889
0.04510148 -0.03010986 0.00030193
0.04912644 -0.02714083 0.00052633
0.05259631 -0.02783887 0.00034022
0.05921286 -0.04286012 -0.00089282
0.07448860 -0.04292333 0.00098942
0.04736184 -0.03387055 0.00028536
0.06275837 -0.03254640 0.00077126
0.07433797 -0.04102481 0.00109997
0.04127054 -0.03229401 0.00015332
0.05994311 -0.03883477 0.00009593
0.05274559 -0.03303989 0.00064045
0.06067803 -0.04000901 -0.00006681
0.06647958 -0.04339844 -0.00011745
0.07316832 -0.04050877 0.00104027
0.05728465 -0.03480661 0.00074579
0.07213423 -0.04845069 -0.00051954
0.05952126 -0.03738121 0.00025519
0.05688461 -0.03190760 0.00065715
0.06857198 -0.04194060 0.00039888
0.06943192 -0.04246124 0.00044942
0.07019459 -0.04341736 0.00029490
0.06219260 -0.03961441 0.00035352
0.04901631 -0.03343650 0.00016670
0.05219095 -0.03795719 -0.00020664
0.04888593 -0.03610688 -0.00030529
0.06176603 -0.04053795 0.00019275
0.06580874 -0.04642269 -0.00096637
0.04321788 -0.03062671 0.00049514
0.06190748 -0.03502255 0.00073368
0.05875223 -0.03536221 0.00066940
0.05022867 -0.02363015 0.00016776
0.05245267 -0.03109711 0.00053315
0.06065787 -0.04369191 -0.00086635
0.05432781 -0.03186282 0.00067388
0.04860898 -0.03140089 0.00054551
0.04683473 -0.03362525 0.00014850
0.06424245 -0.04108749 0.00033669
0.05459281 -0.03212266 0.00044227
0.06680699 -0.04689698 -0.00103049
0.06066677 -0.04280454 -0.00065809
0.07489559 -0.04146121 0.00107527
0.05562032 -0.03776359 0.00016180
0.05584686 -0.03533354 0.00029416
0.05083275 -0.02909774 0.00044754
0.04500501 -0.02731256 0.00037327
0.04938570 -0.03483573 0.00005091
0.05447272 -0.03233303 0.00067310
0.05790335 -0.03623487 0.00065971
0.06133592 -0.03685847 0.00038081
0.06691265 -0.03843591 0.00071341
0.07368338 -0.04129268 0.00105863
0.06935336 -0.04359093 0.00029710
0.06834971 -0.03891985 0.00072132
0.07206963 -0.04227688 0.00081465
0.06193925 -0.04369427 -0.00057859
0.05342855 -0.03590718 0.00028809
0.05205049 -0.02491848 0.00030458
0.06742154 -0.04600285 -0.00075147
0.04792832 -0.02364511 0.00015274
0.04429837 -0.03023712 0.00053509
0.06664050 -0.04145826 0.00030729
0.05899372 -0.03439430 0.00075094
0.06434221 -0.04155075 -0.00002371
0.06404205 -0.03350137 0.00077888
0.06130271 -0.03311796 0.00071425
0.05737638 -0.04159148 -0.00049403
0.05372760 -0.03197428 0.00044800
0.06072696 -0.03544511 0.00053824
0.05709266 -0.03858732 -0.00013026
0.07438500 -0.04491013 0.00068715
0.06242117 -0.03777780 0.00063858
0.07020619 -0.04020902 0.00093173
0.05561192 -0.03066688 0.00068059
0.06157897 -0.03307500 0.00077964
0.07032725 -0.04142152 0.00057501
0.04497488 -0.03460751 0.00000349
0.06412671 -0.04279208 -0.00035341
0.06884080 -0.03860862 0.00093015
0.06326465 -0.04464875 -0.00081242
0.05450149 -0.03282136 0.00044578
0.06566408 -0.03929011 0.00054391
0.05544524 -0.03728598 -0.00000865
0.07108145 -0.04080154 0.00087182
0.05366609 -0.03997696 -0.00065081
0.06272589 -0.03752696 0.00068019
0.06002299 -0.03064599 0.00058413
0.05300205 -0.02769640 0.00045659
0.06183973 -0.03373154 0.00062815
0.06781846 -0.04034264 0.00078389
0.07117068 -0.04610407 -0.00018795
0.07364065 -0.04056327 0.00106234
0.05490191 -0.03639101 0.00003010
0.04685991 -0.03413227 -0.00012867
0.07126834 -0.04922230 -0.00112237
0.06123765 -0.03841805 0.00032648
0.05836455 -0.03454144 0.00053587
0.05134020 -0.03595498 -0.00015643
0.05572751 -0.03337376 0.00047426
0.04308611 -0.02978004 0.00062130
0.05098746 -0.02572064 0.00034571
0.06202004 -0.03870934 0.00032093
0.05003857 -0.02337555 0.00013095
0.06624999 -0.04240827 0.00003075
0.06393591 -0.03902277 0.00044564
0.05183468 -0.03205026 0.00061151
0.05512458 -0.03564711 0.00047713
0.05695406 -0.04119013 -0.00058371
0.07518176 -0.04165023 0.00103990
0.04449047 -0.03001381 0.00024596
0.04781329 -0.02358007 0.00029939
0.07433755 -0.04449596 0.00073844
0.06544071 -0.04586423 -0.00094121
0.05814780 -0.02936778 0.00058439
0.06446588 -0.04570095 -0.00101621
0.07298078 -0.04653695 -0.00000641
0.05918668 -0.04105892 -0.00047937
0.04868474 -0.03542266 0.00006895
0.05368518 -0.02955643 0.00065065
0.05552911 -0.02969536 0.00061013
0.04933502 -0.02985212 0.00043632
0.07058633 -0.04867106 -0.00111783
0.05253800 -0.03953418 -0.00052495
0.04730072 -0.03657811 -0.00030558
0.05932684 -0.03684699 0.00060692
0.06649161 -0.04601896 -0.00077360
0.06926100 -0.04734192 -0.00076828
0.05383428 -0.03900011 -0.00031732
0.05190098 -0.02804686 0.00054903
0.05540394 -0.02978548 0.00046300
0.04791800 -0.03054693 0.00063492
0.06846279 -0.04474084 0.00001596
0.04310878 -0.03438921 -0.00013353
0.06384217 -0.03556243 0.00074887
0.04895920 -0.02294390 0.00009571
0.05933971 -0.03067883 0.00060935
0.04751348 -0.03652254 -0.00031111
0.04641838 -0.03207578 0.00045941
0.05640308 -0.04079128 -0.00045928
0.07088242 -0.04676975 -0.00011410
0.05504630 -0.03777435 -0.00021384
0.06359584 -0.04519784 -0.00089347
0.07311910 -0.04012882 0.00105942
0.06121436 -0.03343782 0.00075190
0.06362438 -0.04295784 -0.00016307
0.04807793 -0.03033572 0.00063954
0.05798198 -0.03475095 0.00051405
0.06695985 -0.03873413 0.00085454
0.04254369 -0.03335251 0.00007557
0.06886578 -0.03705252 0.00090823
0.05670546 -0.02813784 0.00044621
0.05695080 -0.03485082 0.00040159
0.06550669 -0.04215575 0.00028610
0.05114938 -0.03209726 0.00025039
0.07130747 -0.04455427 0.00024199
0.07035265 -0.03961330 0.00104071
0.05736171 -0.04000492 -0.00017462
0.05769176 -0.03711080 0.00017682
0.07290595 -0.04276569 0.00063389
0.04346021 -0.03383859 -0.00017812
0.04860310 -0.03228119 0.00052723
0.05329378 -0.03668636 -0.00004592
0.06707828 -0.04097491 0.00034872
0.06262781 -0.04039125 0.00006784
0.05000846 -0.03233271 0.00050173
0.06424881 -0.03365656 0.00068782
0.06921225 -0.04190318 0.00049347
0.04663189 -0.03209450 0.00018611
0.05348707 -0.03883305 -0.00031101
0.06716435 -0.04440473 -0.00033855
0.06280593 -0.04121843 -0.00010608
0.06805391 -0.04757984 -0.00100811
0.06539347 -0.04249965 -0.00009157
0.07206429 -0.04127540 0.00087182
0.06477108 -0.04577028 -0.00102284
0.06632386 -0.03795021 0.00082168
0.05450591 -0.02868559 0.00067259
0.07368951 -0.04266978 0.00079066
0.04604515 -0.03009418 0.00039605
0.04999344 -0.03090721 0.00033464
0.05853138 -0.03676448 0.00051316
0.06846350 -0.04702866 -0.00068559
0.07046515 -0.04274663 0.00061284
0.05237908 -0.02816703 0.00048112
0.06764811 -0.03961047 0.00083400
0.07303725 -0.04002066 0.00106163
0.06805735 -0.03971220 0.00074490
0.05941521 -0.04037041 -0.00002027
0.06574513 -0.04637493 -0.00097272
0.07132180 -0.04198850 0.00078463
0.06096333 -0.03901631 0.00012321
0.07184294 -0.04323765 0.00068399
0.04611642 -0.03088307 0.00046848
0.05800649 -0.04059179 -0.00022311
0.07637611 -0.04286490 0.00110785
0.04599593 -0.02764289 0.00039336
0.05094939 -0.03613597 -0.00026045
0.06965511 -0.03867141 0.00083532
0.06939040 -0.03956052 0.00073319
0.05808462 -0.03441239 0.00067704
0.04220966 -0.03110082 0.00047419
0.04542161 -0.02928575 0.00071469
0.06587458 -0.03609953 0.00074874
0.06628300 -0.04185723 0.00014426
0.07163157 -0.03905545 0.00100506
0.04889692 -0.02912869 0.00056294
0.05233029 -0.03760772 -0.00004498
0.04851740 -0.02612398 0.00032931
0.06115806 -0.03454728 0.00060099
0.06476449 -0.04479779 -0.00075306
0.06512579 -0.03512110 0.00076593
0.06880930 -0.04232515 0.00038917
0.04944292 -0.02411075 0.00018130
0.06448796 -0.04572313 -0.00089097
0.06631509 -0.04323031 0.00007588
0.06047022 -0.03694441 0.00057483
0.04678202 -0.03107133 0.00057799
0.06305562 -0.03270201 0.00072151
0.07403991 -0.04200368 0.00092547
0.04727527 -0.02673292 0.00035194
0.06758893 -0.04114503 0.00033833
0.06225068 -0.04231758 -0.00033911
0.06024220 -0.04343677 -0.00088380
0.07074332 -0.04485210 0.00032298
0.05623117 -0.03788469 -0.00004715
0.05189946 -0.03906422 -0.00057778
0.06018279 -0.03080965 0.00073520
0.06657249 -0.04219328 0.00039034
0.05171823 -0.03890871 -0.00060765
0.05255670 -0.03590416 -0.00006918
0.06172931 -0.04431076 -0.00091863
0.06071970 -0.04372991 -0.00074794
0.07473401 -0.04210862 0.00090398
0.06798754 -0.04086083 0.00052494
0.05261529 -0.03531734 0.00040262
0.07145160 -0.04797984 -0.00060523
0.07112514 -0.03991770 0.00087362
0.05811539 -0.03361954 0.00071535
0.07225888 -0.04885839 -0.00088054
0.06443334 -0.03946090 0.00035490
0.06625843 -0.04050347 0.00035078
0.07173095 -0.04497893 0.00042166
0.05166700 -0.03881985 -0.00050285
0.05627376 -0.03827120 -0.00014187
0.06397738 -0.03438106 0.00079950
0.06330945 -0.03930052 0.00025743
0.05728918 -0.04097874 -0.00060010
0.07230451 -0.04604357 0.00001740
0.05869337 -0.04264521 -0.00086198
0.05881062 -0.04214014 -0.00055622
0.05786490 -0.02908597 0.00059566
0.05804733 -0.03188631 0.00062073
0.06451676 -0.03446192 0.00084772
0.05332391 -0.02620092 0.00036755
0.06899524 -0.03748534 0.00095236
0.04988084 -0.03201796 0.00031812
0.06419573 -0.04410610 -0.00068091
0.05573631 -0.03576888 0.00022529
0.07436612 -0.04208729 0.00099757
0.06171186 -0.03476527 0.00060364
0.06975099 -0.04790340 -0.00093290
0.06891118 -0.04652644 -0.00069996
0.04883862 -0.03090880 0.00060884
0.07159033 -0.04647767 0.00006309
0.05546217 -0.04095668 -0.00068403
0.05155918 -0.02451169 0.00031372
0.04486982 -0.03376261 -0.00009751
0.06581464 -0.04181240 0.00033464
0.06187760 -0.03695552 0.00071195
0.06705848 -0.04078653 0.00050384
0.06773106 -0.04224079 0.00047226
0.05423953 -0.02935071 0.00034444
0.06937797 -0.04477998 0.00018824
0.06156064 -0.03572700 0.00061110
0.06166235 -0.04298797 -0.00074364
0.04364085 -0.03371396 0.00003343
0.05949418 -0.03375709 0.00073673
0.04072701 -0.03323120 -0.00004595
0.04242534 -0.03008011 0.00016710
0.07110713 -0.04542343 0.00003320
0.05262216 -0.03590293 0.00037212
0.05937503 -0.04211422 -0.00050214
0.05058792 -0.03836868 -0.00043856
0.04653421 -0.02713321 0.00037093
0.04449731 -0.03284297 0.00001791
0.05298475 -0.03774102 -0.00038905
0.04663355 -0.03417225 0.00003733
0.05165627 -0.02565614 0.00028006
0.06647179 -0.04554752 -0.00084156
0.06462124 -0.04458770 -0.00073544
0.06354456 -0.04238477 0.00002478
0.04895698 -0.02399206 0.00024534
0.07074601 -0.04209675 0.00080164
0.05125028 -0.03880821 -0.00050025
0.06392415 -0.04408073 -0.00058956
0.04201423 -0.03368008 -0.00003230
0.07429660 -0.04278758 0.00094245
0.04892885 -0.02594996 0.00038801
0.07015022 -0.04871063 -0.00098117
0.04805797 -0.03246012 0.00015427
0.05431575 -0.03990984 -0.00063477
0.04950578 -0.02641301 0.00057621
0.06009484 -0.04178725 -0.00037185
0.06255508 -0.03567766 0.00083744
0.07149932 -0.04467918 0.00047904
0.05815564 -0.03732003 0.00036241
0.06233850 -0.03371214 0.00065032
0.07207333 -0.04441344 0.00050779
0.04336852 -0.03224722 -0.00003588
0.06313277 -0.03829618 0.00043470
0.05348476 -0.03864754 -0.00043120
0.06268670 -0.04041929 0.00012335
0.04400116 -0.03354848 0.00012775
0.06631358 -0.04238029 0.00038143
0.05585303 -0.03881209 -0.00023321
0.06075216 -0.03770467 0.00029840
0.05685238 -0.03436240 0.00070415
0.06087224 -0.03735588 0.00065288
0.05378816 -0.03930736 -0.00034089
0.05914317 -0.03045383 0.00060215
0.04055373 -0.03303774 0.00001903
0.04903002 -0.02961199 0.00072618
0.04163688 -0.03263438 0.00022323
0.06279258 -0.04077853 0.00022414
0.07070014 -0.04331137 0.00039293
0.05858925 -0.04180038 -0.00066654
0.06949599 -0.04021914 0.00072396
0.06226867 -0.03217003 0.00076307
0.04773818 -0.02627126 0.00048221
0.06410955 -0.03356795 0.00080368
0.05909906 -0.03710384 0.00024683
0.06832857 -0.04186352 0.00035634
0.05269367 -0.03276771 0.00067365
0.05219074 -0.03333619 0.00024305
0.06871415 -0.03778338 0.00097739
0.04935911 -0.03763032 -0.00054839
0.05374394 -0.02659705 0.00038340
0.05239798 -0.03937648 -0.00062789
0.06212127 -0.04222394 -0.00014937
0.06593281 -0.04354054 -0.00023398
0.06810431 -0.03646458 0.00098825
0.05472606 -0.02685504 0.00041976
0.05376950 -0.03327083 0.00035208
0.04285835 -0.03435856 -0.00008046
0.06471909 -0.04136906 0.00032412
0.06992039 -0.04857472 -0.00106703
0.07099779 -0.04846780 -0.00090695
0.07166077 -0.04804094 -0.00049878
0.06675469 -0.03789891 0.00076296
0.04772269 -0.03365815 0.00001331
0.07279458 -0.04547919 0.00048839
0.06155517 -0.04290569 -0.00043880
0.05177735 -0.03702466 -0.00032164
0.05378545 -0.04017749 -0.00063562
0.07116660 -0.04251803 0.00072005
0.06013016 -0.03153556 0.00062277
0.04698691 -0.02743874 0.00061003
0.05445819 -0.02674494 0.00039634
0.05123110 -0.02960009 0.00039647
0.04356357 -0.02970442 0.00021180
0.07268339 -0.04527164 0.00030558
0.04423474 -0.03193851 0.00002142
0.06076879 -0.03798102 0.00025355
0.05025436 -0.03522503 0.00029435
0.05261376 -0.03304184 0.00067808
0.06818580 -0.03949997 0.00083797
0.05842397 -0.04245215 -0.00081673
0.04339337 -0.03427055 -0.00020086
0.06375363 -0.04395313 -0.00062165
0.04930001 -0.03405937 0.00036564
0.05739447 -0.03874259 0.00014945
0.04724425 -0.02978813 0.00054412
0.07650572 -0.04252541 0.00110993
0.04470095 -0.03462550 -0.00027754
0.07225893 -0.04621752 0.00011659
0.05827287 -0.03351835 0.00069155
0.05144434 -0.03744482 -0.00011693
0.04950313 -0.03714543 -0.00024357
0.06484212 -0.04066227 0.00025614
0.04994358 -0.03513477 0.00023551
0.05052523 -0.03698086 -0.00011448
0.07126955 -0.04041802 0.00091824
0.06227802 -0.03225388 0.00070584
0.05049389 -0.03661331 -0.00008968
0.04893066 -0.03754728 -0.00036839
0.05712091 -0.02916762 0.00056913
0.05654394 -0.03573258 0.00018790
0.06307520 -0.03394189 0.00072521
0.07045828 -0.04460358 0.00008567
0.06419397 -0.04376817 -0.00062178
0.04427545 -0.03495497 -0.00021382
0.04828037 -0.02616062 0.00031026
0.05907824 -0.03896012 -0.00001323
0.06895034 -0.04205427 0.00048244
0.04626263 -0.02612478 0.00067764
0.05256903 -0.03044767 0.00070631
0.05489269 -0.03719628 0.00035116
0.05585931 -0.03704140 0.00027023
0.06073380 -0.04022553 -0.00004499
0.04869401 -0.02988449 0.00061850
0.04343291 -0.03236434 0.00027604
0.05454115 -0.03283167 0.00055883
0.04118895 -0.03206109 -0.00005318
0.05055116 -0.02609161 0.00048719
0.04687835 -0.02580418 0.00031836
0.05837061 -0.03552922 0.00059966
0.05600103 -0.03104444 0.00052162
0.05360593 -0.03165946 0.00074439
0.06395849 -0.03491207 0.00067179
0.06641996 -0.04613161 -0.00086678
0.06789944 -0.04402941 0.00013139
0.05768713 -0.03246832 0.00067378
0.07218876 -0.04445888 0.00031206
0.04721403 -0.03560279 0.00002327
0.06374035 -0.03846829 0.00062180
0.04700817 -0.03517888 -0.00004748
0.05444644 -0.03724182 -0.00020745
0.04506965 -0.03152868 0.00017829
0.05699974 -0.02835742 0.00046763
0.05870023 -0.03176064 0.00073160
0.06025382 -0.03421084 0.00057325
0.04908117 -0.03383147 0.00008902
0.04459217 -0.03407190 0.00004561
0.06652540 -0.03723154 0.00080900
0.05612598 -0.03728695 -0.00002917
0.06838665 -0.03883770 0.00073017
0.06359092 -0.03791920 0.00051699
0.06380644 -0.04473365 -0.00092304
0.06184710 -0.03360005 0.00071122
0.07031460 -0.04864537 -0.00106705
0.06630747 -0.04328381 -0.00013935
0.07484849 -0.04131064 0.00102009
0.06010014 -0.03975166 0.00017147
0.06040211 -0.03251133 0.00076494
0.06685408 -0.04693048 -0.00106119
0.06928420 -0.04384073 0.00037348
0.07064376 -0.04559131 0.00010584
0.05408235 -0.02948634 0.00043125
0.06579019 -0.03477781 0.00081201
0.06871809 -0.04002833 0.00082709
0.05355273 -0.02792236 0.00060631
0.05343280 -0.02991673 0.00056794
0.07139898 -0.03886383 0.00101420
0.04473285 -0.03268688 0.00005137
0.06439062 -0.03822655 0.00066598
0.07033651 -0.03922787 0.00090880
0.05799325 -0.03313717 0.00067995
0.06713475 -0.04489701 -0.00046861
0.07347431 -0.04089575 0.00107695
0.06566272 -0.04121964 0.00018191
0.06680952 -0.03785649 0.00084662
0.05526200 -0.04024845 -0.00047576
0.06339841 -0.03746721 0.00047599
0.04482133 -0.03336522 0.00029388
0.06434181 -0.04497355 -0.00070054
0.06919942 -0.04273009 0.00063733
0.05005626 -0.03344306 0.00013818
0.06543951 -0.04203087 0.00027987
0.06372966 -0.03327215 0.00082278
0.06934428 -0.03972751 0.00078312
0.05430377 -0.02849730 0.00050902
0.04251399 -0.03028311 0.00050012
0.06219631 -0.04451399 -0.00093750
0.05789337 -0.04218176 -0.00082333
0.06352874 -0.03815884 0.00060077
0.05065569 -0.02403569 0.00020008
0.05538898 -0.03614857 0.00009163
0.06750268 -0.04394732 0.00005785
0.04761111 -0.03195381 0.00054853
0.06729105 -0.03656809 0.00098627
0.04732669 -0.02637707 0.00056945
0.04659918 -0.03080125 0.00024836
0.05258763 -0.02523017 0.00031833
0.05895601 -0.03069350 0.00061916
0.06910690 -0.03717952 0.00098405
0.05104435 -0.02516731 0.00034714
0.04442093 -0.03163318 0.00008216
0.06030037 -0.04351556 -0.00086237
0.04387381 -0.03347475 0.00010114
0.05020272 -0.02926509 0.00060302
0.06671486 -0.03626033 0.00084870
0.07244034 -0.04860715 -0.00075544
0.05062402 -0.02660085 0.00042768
0.05035111 -0.03469810 0.00026570
0.05877222 -0.03696502 0.00022497
0.05539937 -0.03774693 0.00012549
0.06263697 -0.03547010 0.00075473
0.05290889 -0.03577830 0.00035116
0.06491939 -0.03415207 0.00082496
0.06104045 -0.03432497 0.00059327
0.05365898 -0.03904962 -0.00030211
0.05579562 -0.02752901 0.00046759
0.06639446 -0.03670280 0.00077859
0.05669857 -0.02837457 0.00055048
0.05360606 -0.02605197 0.00029137
0.04800660 -0.03425595 0.00031890
0.07085344 -0.04225065 0.00074311
0.07403150 -0.04435785 0.00058553
0.07151813 -0.04948571 -0.00112173
0.05477979 -0.03353208 0.00034796
0.06564772 -0.04388628 -0.00038272
0.06602608 -0.04657765 -0.00100152
0.04701644 -0.03658728 -0.00036221
0.04800155 -0.03397749 0.00032983
0.07290166 -0.04510306 0.00025488
0.07017668 -0.03947071 0.00087625
0.04845941 -0.02955067 0.00068319
0.05501926 -0.03091908 0.00054946
0.06019900 -0.03906641 0.00007923
0.05630420 -0.03318416 0.00074392
0.07435208 -0.04369241 0.00072225
0.07542712 -0.04272485 0.00110297
0.05287553 -0.03833568 -0.00025304
0.06511680 -0.04420998 -0.00050523
0.05859110 -0.03053580 0.00064259
0.04819453 -0.03576804 -0.00022835
0.05137082 -0.03884813 -0.00055714
0.07199209 -0.03937416 0.00095346
0.05520470 -0.02831154 0.00036715
0.05877538 -0.04268877 -0.00090109
0.04483593 -0.02887941 0.00033778
0.06305693 -0.04354204 -0.00058032
0.04862563 -0.02768783 0.00067787
0.06498623 -0.03976272 0.00044549
0.06835540 -0.04021643 0.00078946
0.04618367 -0.02698354 0.00041286
0.06402647 -0.03344993 0.00087952
0.04560225 -0.03085593 0.00047865
0.05360579 -0.03503054 0.00049647
0.06937518 -0.04399951 0.00008334
0.04786900 -0.03444178 -0.00011148
0.06927245 -0.03944291 0.00085889
0.07147904 -0.04717379 -0.00050241
0.05339038 -0.02831690 0.00040851
0.06415128 -0.03754014 0.00075487
0.06208875 -0.04447989 -0.00094865
0.06311933 -0.04246624 -0.00039525
0.06813577 -0.04638074 -0.00049534
0.06109396 -0.04352525 -0.00083751
0.05782743 -0.04213409 -0.00065653
0.04481193 -0.03245640 0.00011582
0.04925438 -0.03601918 -0.00002309
0.04826223 -0.02592706 0.00047999
0.06699215 -0.04359298 -0.00011518
0.05109825 -0.02424744 0.00028642
0.06468876 -0.03477298 0.00079400
0.05789803 -0.03413582 0.00074262
0.07029519 -0.03807851 0.00108094
0.07172131 -0.04648697 -0.00019455
0.05375633 -0.03795485 -0.00007065
0.06444704 -0.03374874 0.00084167
0.04801467 -0.03213340 0.00022927
0.06019190 -0.03070032 0.00065770
0.06759854 -0.03801722 0.00079937
0.05696676 -0.03359430 0.00064943
0.04510330 -0.02782078 0.00073631
0.05664178 -0.03434220 0.00043352
0.05612967 -0.02782281 0.00047472
0.06975690 -0.03877140 0.00089634
0.06885386 -0.04472778 0.00006934
0.04947631 -0.03031171 0.00040415
0.06140825 -0.04388166 -0.00084984
0.05436061 -0.03597374 0.00009194
0.05242927 -0.03944835 -0.00057906
0.07272167 -0.04151924 0.00087856
0.04976651 -0.03419553 0.00002585
0.06796880 -0.03820135 0.00088393
0.07427738 -0.04097859 0.00106039
0.04861138 -0.02436538 0.00035916
0.07009115 -0.03865316 0.00090665
0.04993716 -0.02599297 0.00043887
0.04119277 -0.03244000 0.00023961
0.07475609 -0.04386604 0.00086947
0.07603147 -0.04248161 0.00116313
0.06549928 -0.03884576 0.00070565
0.05746794 -0.04195674 -0.00067290
0.06624415 -0.04297284 0.00021815
0.06053478 -0.03346002 0.00074402
0.05958989 -0.03353927 0.00076030
0.05958919 -0.04087383 -0.00003814
0.06664015 -0.04335883 -0.00012862
0.04720290 -0.02248860 0.00014740
0.06984695 -0.04778551 -0.00087027
0.05116112 -0.03055366 0.00064065
0.05350794 -0.03447567 0.00022271
0.07200156 -0.03934123 0.00096643
0.05932157 -0.03666370 0.00026116
0.07225198 -0.04573761 0.00002060
0.06596934 -0.04186134 0.00018908
0.04377473 -0.02818639 0.00037262
0.07002184 -0.03897222 0.00091711
0.05929834 -0.03473334 0.00053237
0.06467953 -0.03818303 0.00059482
0.04654062 -0.03017680 0.00057801
0.04648394 -0.03535692 -0.00024367
0.05040232 -0.02783960 0.00052593
0.07011336 -0.04719261 -0.00052647
0.06877551 -0.04717880 -0.00086396
0.05082651 -0.02692542 0.00047356
0.07581056 -0.04217033 0.00115510
0.06780605 -0.04477632 0.00000268
0.04360878 -0.03472251 -0.00011686
0.04791348 -0.02286994 0.00013187
0.06315658 -0.03393198 0.00073580
0.04186599 -0.03082027 0.00049123
0.05661868 -0.02921933 0.00050286
0.04292967 -0.03431654 -0.00019527
0.05659448 -0.02823160 0.00049057
0.06121589 -0.03325124 0.00066290
0.06307911 -0.03292062 0.00076674
0.04883684 -0.03314953 0.00022062
0.05594325 -0.03452276 0.00037072
0.06398277 -0.04443073 -0.00067479
0.06464439 -0.04151308 0.00030554
0.04481509 -0.03530123 -0.00019085
0.05475039 -0.03433028 0.00058143
0.06452125 -0.03491752 0.00071689
0.07124478 -0.04189589 0.00064231
0.06243737 -0.03547878 0.00089816
0.06408170 -0.03523572 0.00079341
0.06910197 -0.04049489 0.00075775
0.05221944 -0.03652763 -0.00016016
0.05056830 -0.03471204 0.00029539
0.06094322 -0.03815436 0.00033704
0.05941248 -0.04029183 -0.00004405
0.04788953 -0.02535690 0.00026381
0.06069588 -0.03153453 0.00070647
0.05891166 -0.04274748 -0.00084956
0.05554124 -0.02761301 0.00040796
0.06097690 -0.03398817 0.00057042
0.07413535 -0.04620802 0.00044469
0.06674940 -0.04024990 0.00067844
0.05411983 -0.02755649 0.00035414
0.05784650 -0.04142475 -0.00046873
0.05821221 -0.02932030 0.00056124
0.07196265 -0.04414854 0.00035946
0.04648371 -0.02559106 0.00055734
0.05620288 -0.03386809 0.00060034
0.05437195 -0.03206737 0.00044276
0.05907711 -0.03778139 0.00048108
0.07178540 -0.04801750 -0.00037134
0.05811537 -0.03213535 0.00077207
0.06803459 -0.04183519 0.00060342
0.07648136 -0.04251153 0.00111340
0.04966415 -0.03128713 0.00060506
0.07158115 -0.04940669 -0.00098766
0.07341260 -0.04223837 0.00085288
0.05872741 -0.02963958 0.00057363
0.06422994 -0.03364991 0.00076634
0.04889923 -0.03547208 -0.00021917
0.06543503 -0.03657025 0.00079722
0.07236440 -0.04168055 0.00095769
0.05937841 -0.04235374 -0.00079657
0.04818575 -0.02265792 0.00012413
0.05840474 -0.03700547 0.00040230
0.05019959 -0.03814060 -0.00057515
0.05675011 -0.03017991 0.00063620
0.04762030 -0.03582810 -0.00035018
0.04713467 -0.03661859 -0.00031885
0.04785058 -0.02782688 0.00044961
0.06047859 -0.03294860 0.00074578
0.04806469 -0.03700643 -0.00032968
0.04174080 -0.03098399 0.00045183
0.06767105 -0.04648963 -0.00067989
0.05174540 -0.03049938 0.00062017
0.06640877 -0.04264569 0.00010640
0.05559556 -0.03553418 0.00059647
0.06291643 -0.04138215 0.00011977
0.05609577 -0.02782344 0.00047941
0.04229411 -0.03230514 0.00024801
0.05303771 -0.03461403 0.00012138
0.06413270 -0.04198211 -0.00006030
0.05909705 -0.04097908 -0.00044853
0.06158112 -0.03164451 0.00070501
0.06113729 -0.04402566 -0.00088783
0.06334957 -0.04216644 -0.00026231
0.06692629 -0.04403439 -0.00028543
0.04860461 -0.03733004 -0.00039932
0.04965849 -0.02608646 0.00043471
0.05472426 -0.03688746 0.00020137
0.06195645 -0.03471529 0.00077915
0.05874209 -0.04264768 -0.00076485
0.07135436 -0.04222104 0.00064452
0.04903568 -0.03480435 -0.00015567
0.05156013 -0.03468324 0.00005279
0.06575237 -0.03552642 0.00076211
0.04436247 -0.03170642 0.00012929
0.05936117 -0.04197166 -0.00069265
0.07182055 -0.04599759 -0.00014946
0.05591918 -0.03144255 0.00063432
0.06440674 -0.04563718 -0.00102525
0.04683844 -0.03140159 0.00020954
0.05540839 -0.02768900 0.00044317
0.06682756 -0.04022690 0.00058280
0.04738620 -0.03280532 0.00034508
0.05695952 -0.02846816 0.00049080
0.07005447 -0.04442942 0.00028589
0.06330031 -0.04509528 -0.00086658
0.06746062 -0.03603369 0.00082796
0.04631939 -0.02534336 0.00058528
0.07248705 -0.04721319 -0.00040764
0.04817242 -0.02228466 0.00005337
0.06463971 -0.04575849 -0.00098828
0.04980020 -0.03217155 0.00054192
0.04341852 -0.03126957 0.00014150
0.06747515 -0.04056656 0.00072416
0.04707375 -0.02384497 0.00033564
0.07210773 -0.04202407 0.00087055
0.04930748 -0.03582392 -0.00024799
0.04929819 -0.03370486 0.00006630
0.06247727 -0.03684191 0.00084531
0.05875585 -0.03657825 0.00050133
0.05655452 -0.03538863 0.00050410
0.05535246 -0.02929288 0.00055559
0.04834351 -0.02513160 0.00031095
0.06832997 -0.04190027 0.00022087
0.06428684 -0.03377605 0.00087691
0.04275233 -0.03216791 0.00030818
0.06447172 -0.03596816 0.00067307
0.05943986 -0.03807524 0.00011528
0.06381162 -0.03973128 0.00047093
0.07565985 -0.04193130 0.00107607
0.07025813 -0.04705265 -0.00064507
0.05298366 -0.03577434 0.00001192
0.05117807 -0.03867467 -0.00048531
0.06725333 -0.04090207 0.00048399
0.05905062 -0.03402670 0.00058381
0.04835147 -0.03422955 0.00023090
0.06566330 -0.03689221 0.00074039
0.05838135 -0.03666479 0.00048012
0.06968352 -0.04041913 0.00084859
0.06074743 -0.04146099 -0.00044447
0.07296063 -0.04001046 0.00105877
0.05587148 -0.03030590 0.00052355
0.04765509 -0.02563103 0.00055541
0.05370265 -0.02987754 0.00055811
0.04957002 -0.03402243 0.00032665
0.05036807 -0.03512649 -0.00005259
0.05109374 -0.02859539 0.00050287
0.05608186 -0.04119790 -0.00072067
0.07295374 -0.04097789 0.00094223
0.07168060 -0.03921647 0.00112209
0.05994127 -0.03756355 0.00021659
0.06498487 -0.04317830 -0.00023128
0.06728246 -0.04531654 -0.00035501
0.04526038 -0.03564334 -0.00033020
0.06291253 -0.04081011 -0.00004645
0.06806207 -0.04573205 -0.00031317
0.06970781 -0.03762660 0.00101407
0.05606768 -0.03204488 0.00072226
0.04328495 -0.03374502 -0.00008013
0.04452320 -0.03441082 -0.00007201
0.05080617 -0.02912341 0.00044940
0.06885309 -0.03703847 0.00087855
0.06315446 -0.03723649 0.00079328
0.04662320 -0.03247985 0.00040269
0.06310264 -0.04472400 -0.00098351
0.05990820 -0.03960366 -0.00009402
0.04978881 -0.02599498 0.00037632
0.05479013 -0.02910072 0.00064480
0.06559334 -0.03648265 0.00076600
0.07354873 -0.04133346 0.00097826
0.04623234 -0.03085102 0.00053171
0.05071897 -0.03839977 -0.00045486
0.04679052 -0.02305561 0.00019588
0.04303172 -0.03442416 -0.00013746
0.05865557 -0.04246999 -0.00068796
0.06305319 -0.03281525 0.00068102
0.07083087 -0.04661393 -0.00035700
0.04992215 -0.02398078 0.00014458
0.06395964 -0.04277602 -0.00036152
0.06837000 -0.03684066 0.00078538
0.07123812 -0.04896920 -0.00101095
0.04912687 -0.02457213 0.00042129
0.07019187 -0.04640889 -0.00022234
0.04442642 -0.03032523 0.00062543
0.06644227 -0.04415499 -0.00001373
0.05935452 -0.03547745 0.00071640
0.05371975 -0.04002827 -0.00064423
0.04334843 -0.02982345 0.00025475
0.06095760 -0.04026439 -0.00007072
0.05082350 -0.03712427 -0.00012790
0.04329985 -0.03175599 0.00010902
0.05814807 -0.02940821 0.00056543
0.05345477 -0.02687940 0.00044089
0.07042092 -0.04816258 -0.00089526
0.07264091 -0.04605676 -0.00000475
0.04755598 -0.03670455 -0.00026483
0.04762803 -0.03194354 0.00058239
0.07170449 -0.04656181 0.00002524
0.04628256 -0.02428228 0.00028326
0.05137535 -0.02626072 0.00038984
0.06154177 -0.03792776 0.00054681
0.07044447 -0.04012385 0.00087917
0.05796650 -0.02929770 0.00050650
0.04907107 -0.02504325 0.00041193
0.06204804 -0.04088287 -0.00003420
0.07229893 -0.04387704 0.00043958
0.06492757 -0.04286548 -0.00003461
0.04784832 -0.03430262 0.00030954
0.06755410 -0.04736728 -0.00105304
0.06670932 -0.04202052 0.00022033
0.04977451 -0.03340293 0.00060293
0.07050488 -0.04294279 0.00045856
0.06315592 -0.04433905 -0.00077911
0.05097858 -0.03862967 -0.00060002
0.06167463 -0.03191041 0.00073504
0.07051261 -0.04861733 -0.00112641
0.04387084 -0.03202924 0.00033357
0.06009376 -0.03613142 0.00056131
0.06327205 -0.04001579 0.00045386
0.06229519 -0.03724630 0.00048591
0.05803859 -0.03843397 0.00022023
0.05172351 -0.03896231 -0.00050889
0.05070095 -0.02890712 0.00069989
0.05639676 -0.03639037 0.00021644
0.05713668 -0.03925973 -0.00029284
0.05307431 -0.03563683 0.00000868
0.06598537 -0.04199358 0.00034772
0.07145003 -0.04297173 0.00068598
0.06738813 -0.04086470 0.00031561
0.06598090 -0.04143363 0.00019763
0.06770146 -0.03633584 0.00091304
0.05649436 -0.03573477 0.00045150
0.05561000 -0.02785428 0.00043756
0.04378631 -0.03025241 0.00027396
0.06103042 -0.04257164 -0.00067340
0.06551083 -0.04106229 0.00057501
0.06452832 -0.04250787 -0.00008127
0.04552408 -0.03567046 -0.00031652
0.05958401 -0.03223045 0.00078019
0.06870151 -0.04646651 -0.00075402
0.07511398 -0.04151956 0.00099602
0.06454685 -0.03393445 0.00089418
0.06613666 -0.03867567 0.00061731
0.04101404 -0.03326790 -0.00005314
0.05588845 -0.02814111 0.00050185
0.05702353 -0.03174072 0.00048387
0.04967713 -0.02956138 0.00070705
0.06721427 -0.03992047 0.00078127
0.06288668 -0.03998002 0.00021484
0.05527814 -0.03142084 0.00067373
0.06725212 -0.04718020 -0.00105245
0.07325055 -0.04218165 0.00087115
0.04056924 -0.03312653 -0.00006122
0.05687082 -0.02911684 0.00062954
0.07292085 -0.04778288 -0.00014472
0.05182290 -0.02464231 0.00025456
0.04875794 -0.02791579 0.00060143
0.04534890 -0.03358296 -0.00012058
0.07271788 -0.04043625 0.00090803
0.06519908 -0.03470544 0.00085922
0.06189069 -0.03207272 0.00079330
0.05407349 -0.03731374 0.00009596
0.05272465 -0.02762390 0.00055462
0.05072175 -0.02776906 0.00050945
0.05990895 -0.04329162 -0.00094643
0.06244568 -0.03662162 0.00056780
0.07225552 -0.04896380 -0.00067903
0.06823513 -0.03734092 0.00076843
0.05227643 -0.02660712 0.00041116
0.04948178 -0.02963908 0.00036520
0.04257553 -0.03386656 -0.00002376
0.06858425 -0.04169699 0.00050269
0.06249104 -0.04469708 -0.00084501
0.05270864 -0.02532125 0.00033552
0.04692130 -0.02469545 0.00050620
0.06129676 -0.04416546 -0.00088009
0.06473947 -0.04196806 0.00023299
0.05494044 -0.03222503 0.00043260
0.06923631 -0.04054867 0.00063955
0.06754157 -0.04741403 -0.00111465
0.06778519 -0.04360258 -0.00005932
0.04868083 -0.03298672 0.00029130
0.06260184 -0.04425203 -0.00086695
0.05632072 -0.03874620 0.00006179
0.06365107 -0.03706981 0.00073317
0.07157621 -0.04423305 0.00034757
0.06453449 -0.03392722 0.00079004
0.07093223 -0.04647979 -0.00034356
0.06679375 -0.03544477 0.00080873
0.06076348 -0.04333356 -0.00065512
0.04811059 -0.03519520 0.00008594
0.05301101 -0.02805194 0.00029793
0.06752406 -0.04272496 0.00037065
0.05140907 -0.03886280 -0.00049627
0.05943972 -0.04237227 -0.00064201
0.05468978 -0.02958097 0.00046861
0.05910822 -0.03444881 0.00048893
0.06413934 -0.04054296 0.00016846
0.05332566 -0.03163198 0.00064418
0.04799794 -0.02567441 0.00034263
0.06905846 -0.03769955 0.00098446
0.06576981 -0.04519710 -0.00054449
0.07512735 -0.04292547 0.00079106
0.07248777 -0.04602023 0.00001842
0.04876924 -0.02810847 0.00061214
0.05719441 -0.04191081 -0.00078509
0.05345850 -0.03793835 -0.00032573
0.06345750 -0.03733449 0.00060592
0.06060563 -0.03924341 0.00008517
0.05485075 -0.03146510 0.00058363
0.05641375 -0.03957728 -0.00031051
0.04835853 -0.02569511 0.00048426
0.06568936 -0.03475690 0.00085679
0.04437234 -0.02930433 0.00036685
0.07310279 -0.04248583 0.00090782
0.05603472 -0.04071146 -0.00044232
0.04587167 -0.03316435 0.00033682
0.07058992 -0.04706303 -0.00034373
0.06774594 -0.03625531 0.00090877
0.04656352 -0.03322459 0.00006415
0.07465424 -0.04551164 0.00073116
0.05167204 -0.02730299 0.00039594
0.04432977 -0.02847903 0.00035442
0.05098685 -0.02637558 0.00046883
0.05888966 -0.03269432 0.00058362
0.05059776 -0.02821027 0.00040127
0.05525622 -0.03595670 0.00044821
0.06705017 -0.03833333 0.00072316
0.05922666 -0.04100770 -0.00029605
0.06686054 -0.03560813 0.00091817
0.07549650 -0.04184409 0.00117593
0.07116234 -0.04638751 -0.00026446
0.06139624 -0.03580525 0.00056999
0.05355406 -0.03819089 -0.00036258
0.04462191 -0.03374053 0.00021065
0.04891741 -0.03511734 0.00013140
0.04682430 -0.02991751 0.00070874
0.05216393 -0.02924018 0.00052666
0.06792527 -0.04108877 0.00067243
0.04735809 -0.02477881 0.00033819
0.04444248 -0.03390382 -0.00006858
0.05185399 -0.02686153 0.00040601
0.05878429 -0.03911069 -0.00008327
0.05664036 -0.03379994 0.00072076
0.05485555 -0.03229565 0.00047579
0.06446358 -0.04062866 0.00016610
0.04688898 -0.03135263 0.00057691
0.07589917 -0.04220961 0.00111922
0.06196836 -0.03859865 0.00021407
0.04826649 -0.02425477 0.00025282
0.05205317 -0.03782918 -0.00026303
0.06089641 -0.03472060 0.00080426
0.05733786 -0.03470485 0.00067847
0.07227322 -0.03966620 0.00110814
0.05189060 -0.03730557 -0.00011165
0.04147876 -0.03356226 -0.00001872
0.06992876 -0.04862709 -0.00109757
0.04714622 -0.02234807 0.00016509
0.04904620 -0.03396894 0.00040697
0.05240832 -0.03595504 0.00004985
0.04825854 -0.02730494 0.00031423
0.05552727 -0.03468901 0.00033053
0.07354520 -0.04087116 0.00106733
0.06632857 -0.04185328 0.00042483
0.06240973 -0.03616962 0.00062259
0.05370221 -0.03021294 0.00042686
0.07195559 -0.04510115 0.00034655
0.06066787 -0.04361691 -0.00089496
0.05364800 -0.03679832 -0.00012782
0.05702277 -0.02847408 0.00054221
0.05630499 -0.02962229 0.00052268
0.06957458 -0.04804513 -0.00092094
0.06707165 -0.03777442 0.00079251
0.04827928 -0.02217910 0.00010635
0.05963524 -0.03261770 0.00079707
0.05376910 -0.03460697 0.00015325
0.06741842 -0.04723997 -0.00106535
0.05558772 -0.02845980 0.00043158
0.05045330 -0.02455005 0.00026157
0.04740413 -0.03037897 0.00040846
0.07167043 -0.04883271 -0.00100858
0.06141931 -0.03792565 0.00055368
0.06746717 -0.03907288 0.00064403
0.04739907 -0.03580994 -0.00007952
0.07048620 -0.03827316 0.00096440
0.05515204 -0.03789715 -0.00014120
0.06661843 -0.04497908 -0.00035567
0.05008355 -0.03119301 0.00060020
0.05906553 -0.03872458 0.00027062
0.06711744 -0.04546360 -0.00047814
0.05956497 -0.03031973 0.00052309
0.06091761 -0.04204320 -0.00023828
0.06052972 -0.04366700 -0.00086296
0.05366126 -0.03204765 0.00061063
0.07434703 -0.04102075 0.00112362
0.06207338 -0.04244009 -0.00055640
0.05948078 -0.03868438 0.00006715
0.04717151 -0.03172666 0.00024188
0.06730588 -0.04533922 -0.00032768
0.05733105 -0.03797911 0.00033515
0.05656405 -0.03690202 0.00014279
0.06997626 -0.03928893 0.00081746
0.05388811 -0.02704647 0.00046118
0.06663983 -0.04245930 0.00032025
0.06620541 -0.04595541 -0.00071191
0.05706060 -0.03869278 -0.00016308
0.04079434 -0.03322520 0.00008285
0.05589526 -0.02944867 0.00049475
0.07208596 -0.04000010 0.00102931
0.05355043 -0.03993618 -0.00060674
0.05129307 -0.02434504 0.00029623
0.04959012 -0.02314090 0.00017178
0.04263538 -0.03073086 0.00048340
0.07155709 -0.04134248 0.00082362
0.04920579 -0.02275603 0.00009107
0.06966626 -0.03886830 0.00078892
0.04585670 -0.03169183 0.00051370
0.06817608 -0.04455256 -0.00003167
0.04873748 -0.03322172 0.00015606
0.06796505 -0.04215914 0.00029051
0.05290933 -0.03700707 0.00003074
0.06323959 -0.04440221 -0.00051286
0.06497394 -0.04428493 -0.00024911
0.04959206 -0.03221048 0.00051005
0.05798114 -0.03514542 0.00036049
0.06447762 -0.03645096 0.00073287
0.05270253 -0.02523118 0.00029452
0.06182404 -0.03195870 0.00073739
0.04619077 -0.02444462 0.00033735
0.06137005 -0.04027356 0.00024465
0.05693869 -0.03240160 0.00046068
0.06090429 -0.03419603 0.00065708
0.04938010 -0.02517073 0.00028201
0.04761882 -0.03682917 -0.00043967
0.05736345 -0.04168191 -0.00064291
0.05482925 -0.03649815 0.00032861
0.06044529 -0.03806073 0.00028550
0.05044100 -0.03659657 -0.00001557
0.05354095 -0.03949764 -0.00060999
0.06233333 -0.04140718 0.00004624
0.07048302 -0.03995315 0.00089591
0.05499247 -0.03980069 -0.00056509
0.06112263 -0.03232345 0.00071270
0.06347468 -0.03320962 0.00077715
0.05753775 -0.04209510 -0.00075615
0.04521960 -0.02785291 0.00061668
0.05461780 -0.02864077 0.00041221
0.05961231 -0.04314308 -0.00080647
0.06635150 -0.03635880 0.00092624
0.06198471 -0.03658322 0.00058119
0.04721319 -0.02462489 0.00044363
0.06582370 -0.04536446 -0.00084577
0.05468418 -0.03699036 0.00029201
0.04769698 -0.03565684 -0.00019825
0.04596554 -0.02603076 0.00030266
0.06358375 -0.04528737 -0.00092638
0.06407405 -0.04498393 -0.00068312
0.06940060 -0.03795817 0.00095062
0.06018433 -0.03609134 0.00044520
0.06122312 -0.03958415 0.00031606
0.06797600 -0.04415138 0.00011705
0.06669381 -0.03724011 0.00081263
0.04919920 -0.03753018 -0.00045508
0.06159816 -0.04430844 -0.00080978
0.06604786 -0.04326576 0.00000855
0.05411533 -0.03239809 0.00063273
0.07074663 -0.04721196 -0.00058525
0.04531690 -0.02808641 0.00043527
0.05301940 -0.03919965 -0.00055452
0.05335739 -0.02957991 0.00035233
0.04870763 -0.02562673 0.00046058
0.06807652 -0.04588330 -0.00062825
0.06444501 -0.03662119 0.00084440
0.04676775 -0.03206706 0.00010041
0.05574000 -0.03343914 0.00036424
0.05598602 -0.03941375 -0.00010287
0.04769773 -0.02196961 0.00003060
0.06987218 -0.04641636 -0.00023582
0.05273810 -0.03497441 0.00011896
0.06553458 -0.04632186 -0.00103482
0.07207759 -0.04445307 0.00024976
0.06624495 -0.04470325 -0.00060926
0.06157426 -0.03557894 0.00075582
0.06535383 -0.04616188 -0.00098843
0.06566789 -0.03962991 0.00045517
0.05259004 -0.03423214 0.00044262
0.05616499 -0.02983056 0.00050372
0.06349113 -0.03915616 0.00060557
0.06519367 -0.03690000 0.00067099
0.06684412 -0.04701748 -0.00110400
0.06897445 -0.04589823 -0.00018574
0.05351200 -0.01825796 0.00033826
0.05605799 -0.02548084 0.00010290
0.05749663 -0.02721142 0.00003852
0.07566473 -0.02825392 0.00072062
0.06340289 -0.02933537 -0.00017733
0.07108773 -0.03443553 -0.00099545
0.05360861 -0.01743132 0.00043533
0.07528105 -0.03472488 -0.00073179
0.05179165 -0.01575328 0.00020684
0.06611533 -0.03120118 -0.00052433
0.05614024 -0.02945172 -0.00049321
0.07349783 -0.03416183 -0.00071971
0.06524819 -0.03075930 -0.00049322
0.07792896 -0.03501676 -0.00058020
0.06597004 -0.03083943 -0.00018211
0.05240262 -0.02349492 0.00021583
0.06210922 -0.02489686 0.00063962
0.05557404 -0.02738591 0.00003796
0.07335626 -0.02596003 0.00093339
0.07236392 -0.03491312 -0.00102641
0.05948265 -0.01785186 0.00032664
0.07306611 -0.03231280 -0.00028704
0.06817456 -0.02500075 0.00066707
0.05506319 -0.02731600 0.00001188
0.05670483 -0.02967848 -0.00049140
0.05455680 -0.02150359 0.00069046
0.07093974 -0.02595568 0.00087515
0.06189498 -0.02353770 0.00056484
0.06821974 -0.02564990 0.00077016
0.06771387 -0.03086592 -0.00027097
0.06288510 -0.02333377 0.00061076
0.07817466 -0.03637329 -0.00106630
0.06186064 -0.02973521 -0.00016883
0.05634653 -0.02744208 -0.00014765
0.06856360 -0.02245487 0.00070876
0.05142732 -0.02059947 0.00040063
0.04863942 -0.02006958 0.00067018
0.06792920 -0.02749897 0.00062978
0.05660177 -0.02094443 0.00061408
0.05604972 -0.02782597 -0.00033884
0.08101264 -0.03261150 0.00037978
0.06968047 -0.02915053 0.00046429
0.07538177 -0.03595233 -0.00105990
0.06736672 -0.02367376 0.00071763
0.05292448 -0.02805997 -0.00039142
0.04956371 -0.01878127 0.00041366
0.05129280 -0.02403624 0.00046909
0.06818836 -0.02933467 0.00008403
0.05411943 -0.02556681 0.00033577
0.07352944 -0.03283246 -0.00003776
0.06376223 -0.02278588 0.00066052
0.06227978 -0.02639367 0.00032100
0.06568510 -0.03206372 -0.00078647
0.04810066 -0.01974313 0.00040019
0.07897170 -0.03073571 0.00065339
0.07332968 -0.02482743 0.00097111
0.05719754 -0.02277027 0.00033348
0.06413518 -0.02714571 0.00044888
0.05103437 -0.02779698 -0.00022805
0.05887350 -0.02181621 0.00036539
0.04846898 -0.02463024 0.00004433
0.06760351 -0.02199228 0.00068054
0.07444895 -0.03042395 0.00031883
0.07224845 -0.03313970 -0.00057069
0.06843036 -0.02415392 0.00074328
0.06935979 -0.02273245 0.00087831
0.06412126 -0.03180593 -0.00072610
0.07599166 -0.03006080 0.00048773
0.07216747 -0.03475455 -0.00096171
0.07346101 -0.02816382 0.00066391
0.07043308 -0.03306215 -0.00081638
0.07647692 -0.03593126 -0.00084515
0.05291785 -0.01994353 0.00042326
0.06721383 -0.02758190 0.00055446
0.05968443 -0.02919226 -0.00038958
0.05208944 -0.02369005 0.00054326
0.05007480 -0.01483406 0.00012391
0.07253322 -0.02801656 0.00069426
0.05891280 -0.02570399 0.00053802
0.06278196 -0.02360160 0.00068500
0.06472430 -0.02638265 0.00067464
0.05432572 -0.02095808 0.00037275
0.06102854 -0.02226319 0.00066895
0.05525302 -0.02405960 0.00052413
0.05433377 -0.02192435 0.00053941
0.07703184 -0.03245033 0.00035939
0.07070469 -0.03173223 0.00008875
0.06628899 -0.03256266 -0.00064061
0.05809047 -0.02908969 -0.00045017
0.06325384 -0.03053050 -0.00024135
0.05343838 -0.02542848 0.00026882
0.07302985 -0.03255084 -0.00036201
0.05896598 -0.02832656 0.00002863
0.05676784 -0.02232047 0.00065633
0.06486938 -0.02686789 0.00052750
0.05494294 -0.02909452 -0.00040852
0.07102879 -0.02371939 0.00086314
0.04916415 -0.02086420 0.00068007
0.06689306 -0.03075897 -0.00034872
0.06044342 -0.02465457 0.00030581
0.05131189 -0.02451519 0.00043280
0.07338004 -0.02684160 0.00077622
0.05935064 -0.01793508 0.00039084
0.06037863 -0.02562632 0.00025080
0.05572699 -0.02793773 -0.00034052
0.06954259 -0.02392112 0.00078182
0.06206406 -0.01927877 0.00059486
0.06810401 -0.02714120 0.00064789
0.06198601 -0.02403755 0.00045509
0.07306339 -0.02687248 0.00092376
0.05829572 -0.01738393 0.00043600
0.05583617 -0.02939239 -0.00050478
0.05037666 -0.02761471 -0.00016882
0.05831569 -0.02689119 0.00028379
0.07601824 -0.03617802 -0.00106978
0.05161582 -0.02645615 0.00014838
0.07359408 -0.03385472 -0.00064774
0.06921435 -0.02982666 -0.00004504
0.06004750 -0.02202160 0.00060074
0.06006049 -0.02449607 0.00073110
0.05373386 -0.02171226 0.00060224
0.07159976 -0.02514407 0.00096110
0.06906773 -0.03055513 -0.00007571
0.07881210 -0.03576692 -0.00070592
0.07229199 -0.02769705 0.00065672
0.05947366 -0.02776499 0.00014248
0.05405220 -0.01714802 0.00039012
0.06884898 -0.02453928 0.00076652
0.06603194 -0.02926879 -0.00014529
0.05221865 -0.02282621 0.00058224
0.06936836 -0.02437702 0.00069376
0.05450380 -0.01844502 0.00042104
0.07594927 -0.03409742 -0.00033835
0.05402222 -0.02879507 -0.00044356
0.05921699 -0.02342833 0.00040886
0.06511522 -0.02070307 0.00067562
0.07594707 -0.03180715 0.00042401
0.05658859 -0.02358945 0.00031391
0.05080809 -0.01419668 0.00010734
0.05702273 -0.02551883 0.00031204
0.06072652 -0.01862530 0.00047026
0.05203870 -0.02134080 0.00038867
0.07735211 -0.03452082 -0.00025216
0.07576480 -0.03432460 -0.00065758
0.04663721 -0.02460750 0.00041825
0.07654962 -0.02921729 0.00082753
0.07296251 -0.02950284 0.00066671
0.05655247 -0.01993029 0.00064448
0.05667384 -0.02972099 -0.00045250
0.04957122 -0.02186554 0.00060139
0.05807097 -0.02810580 0.00004807
0.06112525 -0.02270332 0.00073006
0.04788127 -0.02583474 -0.00017140
0.05441633 -0.01786149 0.00055662
0.07504064 -0.02571290 0.00096632
0.07894108 -0.03496966 -0.00040410
0.07323687 -0.03084801 0.00034929
0.06477071 -0.02059286 0.00061760
0.06665755 -0.02236471 0.00069874
0.07983770 -0.03076816 0.00078809
0.07944635 -0.02953715 0.00084090
0.06547077 -0.02510807 0.00070509
0.05733538 -0.02157616 0.00044984
0.06370714 -0.02546900 0.00061235
0.07461382 -0.03387489 -0.00036751
0.06062693 -0.02073658 0.00072583
0.04760452 -0.02668716 -0.00019191
0.07430785 -0.02537345 0.00092974
0.06652367 -0.03215823 -0.00066649
0.05198424 -0.01454196 0.00011038
0.05999053 -0.02908575 -0.00004291
0.05050974 -0.02757142 -0.00030096
0.06093473 -0.02422693 0.00041471
0.08251144 -0.02937041 0.00107176
0.07864912 -0.03311519 0.00032728
0.08108334 -0.03116507 0.00085384
0.07623845 -0.03567295 -0.00092814
0.05591045 -0.01623596 0.00028598
0.06799986 -0.03342621 -0.00096979
0.07436707 -0.02651078 0.00090909
0.07939643 -0.03462855 -0.00024474
0.06521448 -0.03253886 -0.00079595
0.05352550 -0.01690585 0.00036962
0.06000238 -0.02699663 0.00033475
0.06709133 -0.03230486 -0.00046776
0.05967935 -0.01971222 0.00045994
0.06482142 -0.02070279 0.00057702
0.07052363 -0.02646390 0.00078358
0.06464845 -0.03130680 -0.00061482
0.04656441 -0.02633312 0.00001262
0.06204261 -0.01922909 0.00060865
0.05595057 -0.02934394 -0.00045689
0.07503526 -0.03457158 -0.00046995
0.05888585 -0.02111015 0.00055222
0.08003477 -0.03442267 -0.00006149
0.06673268 -0.02476391 0.00083949
0.07963252 -0.03386403 0.00022935
0.05928190 -0.02777957 -0.00014192
0.07276447 -0.02797701 0.00057177
0.06942989 -0.03382598 -0.00096770
0.07870535 -0.03556048 -0.00044988
0.05252093 -0.02826292 -0.00040790
0.07717528 -0.03219149 0.00037580
0.05092702 -0.02228133 0.00034994
0.07796965 -0.02752357 0.00103890
0.05291351 -0.01682709 0.00043007
0.05940615 -0.03062200 -0.00058639
0.05893938 -0.02447964 0.00026374
0.05903639 -0.02593463 0.00049186
0.07107192 -0.03246703 -0.00033387
0.05571834 -0.02063634 0.00042209
0.06549498 -0.02761410 0.00043305
0.06823851 -0.02234206 0.00078481
0.08237737 -0.02941857 0.00113687
0.07409247 -0.02664594 0.00089872
0.05007135 -0.01673062 0.00040887
0.07776258 -0.02713352 0.00098973
0.05771392 -0.02768220 -0.00019983
0.05188592 -0.02672049 -0.00024232
0.06329736 -0.03010155 -0.00010207
0.06933486 -0.03368836 -0.00084261
0.06422232 -0.02229661 0.00062822
0.04994164 -0.02741290 -0.00016996
0.07880446 -0.03216109 0.00053274
0.06267751 -0.02576529 0.00028377
0.06248340 -0.02737105 0.00004136
0.06893849 -0.02945688 0.00006013
0.07162634 -0.02418625 0.00093128
0.07083712 -0.02909965 0.00040773
0.06190558 -0.02290013 0.00069624
0.07466165 -0.02673434 0.00097842
0.08196284 -0.02919744 0.00115083
0.05816497 -0.02010254 0.00062965
0.07499643 -0.03585042 -0.00101435
0.08170562 -0.03103229 0.00076941
0.06535835 -0.02461814 0.00054833
0.07815947 -0.03162452 0.00054070
0.06748289 -0.03207036 -0.00061510
0.05375150 -0.01896247 0.00060621
0.07169679 -0.02427325 0.00091916
0.05164419 -0.02023310 0.00041778
0.05429668 -0.02596474 0.00031529
0.05452650 -0.02514573 0.00008310
0.07364543 -0.03070478 0.00043161
0.06876333 -0.03169392 -0.00049943
0.06993994 -0.02934092 0.00023209
0.05606060 -0.01632482 0.00024614
0.05147977 -0.02676483 0.00005291
0.06255393 -0.02550204 0.00036477
0.07349711 -0.03221886 0.00010501
0.05499475 -0.02912832 -0.00051876
0.05160375 -0.02791995 -0.00036549
0.06313844 -0.02525903 0.00033554
0.05736753 -0.02123050 0.00062186
0.07748938 -0.02696633 0.00097448
0.05140878 -0.01803603 0.00056808
0.06306834 -0.02933586 -0.00000803
0.07756686 -0.03145510 0.00056603
0.05218295 -0.02191939 0.00066752
0.05561137 -0.02606743 0.00021340
0.06928598 -0.02657575 0.00077591
0.06134151 -0.02851056 0.00005176
0.06666777 -0.02809636 0.00043182
0.06660826 -0.03264811 -0.00085475
0.05584891 -0.01738358 0.00040558
0.04980763 -0.01709660 0.00026940
0.07090803 -0.03140424 -0.00022666
0.06603534 -0.02206395 0.00074207
0.06636918 -0.02929298 -0.00002635
0.07937748 -0.02787224 0.00109855
0.05721892 -0.02012928 0.00058045
0.07905694 -0.03711347 -0.00106413
0.07960941 -0.03417006 0.00009512
