ply
format ascii 1.0
element vertex 1358
property float x
property float y
property float z
end_header
-0.06626346 -0.05830833 0.00069315
-0.07107201 -0.05815709 -0.00007034
-0.05286692 -0.04123551 0.00013838
-0.05999995 -0.05292154 0.00047855
-0.05348499 -0.04907752 0.00036058
-0.06421313 -0.05585742 0.00057777
-0.06705185 -0.06189059 0.00087590
-0.05306075 -0.05114259 0.00030457
-0.06052847 -0.04916392 0.00025928
-0.06469772 -0.04949620 -0.00064568
-0.06677777 -0.06137969 0.00083557
-0.05162570 -0.05071336 0.00023139
-0.06076092 -0.05047238 0.00005272
-0.05555679 -0.04761065 0.00026475
-0.06032815 -0.05673835 0.00068407
-0.05459709 -0.04246478 0.00000314
-0.06635089 -0.05096857 -0.00068003
-0.04863822 -0.04644887 0.00024215
-0.06352080 -0.05920961 0.00081907
-0.06591801 -0.05518031 0.00014917
-0.06356653 -0.05162694 0.00009932
-0.06975591 -0.06186906 0.00074081
-0.04941884 -0.04690890 0.00022365
-0.05505892 -0.04244689 0.00003905
-0.07079369 -0.05853267 -0.00017975
-0.05962694 -0.05649458 0.00060615
-0.07000342 -0.06133083 0.00068973
-0.06913779 -0.06024743 0.00046641
-0.04877535 -0.04855975 0.00013749
-0.06774763 -0.05805146 0.00045949
-0.05557234 -0.05353300 0.00055340
-0.04943575 -0.04722045 0.00010549
-0.05546886 -0.04448501 0.00036793
-0.06808459 -0.06091353 0.00068434
-0.06245615 -0.05043135 0.00015136
-0.05427990 -0.05153855 0.00047442
-0.05847011 -0.05095826 0.00055759
-0.05865080 -0.04739241 0.00030277
-0.05712921 -0.04683507 0.00012782
-0.05908897 -0.04375777 -0.00028128
-0.05826204 -0.05203998 0.00037302
-0.05738189 -0.04693321 0.00017506
-0.06628206 -0.05988947 0.00070895
-0.06630886 -0.05638370 0.00023067
-0.05827943 -0.04293459 -0.00023290
-0.05788405 -0.04379772 -0.00029200
-0.05962251 -0.05119498 0.00050266
-0.05692427 -0.04798874 0.00043293
-0.05261692 -0.05138053 0.00028461
-0.06274206 -0.05888182 0.00076409
-0.06727085 -0.05534630 -0.00010900
-0.06996688 -0.05466760 -0.00075651
-0.05128327 -0.04570844 0.00036514
-0.06131230 -0.05653041 0.00063771
-0.05733080 -0.05023482 0.00024288
-0.06715889 -0.05964307 0.00051611
-0.05104431 -0.04510444 0.00050695
-0.05324396 -0.04471295 0.00051395
-0.06607036 -0.06115656 0.00084163
-0.05816891 -0.04743307 0.00037275
-0.05109924 -0.04804425 0.00032946
-0.05687626 -0.05443100 0.00055961
-0.06592547 -0.05504841 0.00010543
-0.05903685 -0.04832316 0.00010591
-0.05486683 -0.04935982 0.00050592
-0.06359793 -0.04926172 -0.00028780
-0.05284837 -0.04436317 0.00053803
-0.05949487 -0.04764728 0.00001217
-0.06464081 -0.05816041 0.00065307
-0.06013803 -0.04660907 -0.00020943
-0.07105838 -0.05574821 -0.00083819
-0.06656542 -0.05470802 -0.00013559
-0.05659741 -0.05371864 0.00049910
-0.04754422 -0.04761372 -0.00002199
-0.05841483 -0.05317812 0.00047447
-0.07010722 -0.05479463 -0.00073355
-0.06496635 -0.05127347 -0.00014333
-0.06421701 -0.05086727 -0.00036267
-0.05803983 -0.05009721 0.00053039
-0.06019787 -0.04503937 -0.00045500
-0.06980313 -0.05626836 -0.00025261
-0.06517227 -0.06019679 0.00077551
-0.06011631 -0.05623845 0.00069562
-0.06285856 -0.04813189 -0.00049947
-0.06810055 -0.06011177 0.00062955
-0.05675736 -0.04858390 0.00033544
-0.06678598 -0.05831821 0.00064508
-0.07034567 -0.05495104 -0.00083868
-0.06471954 -0.05043947 -0.00047122
-0.05144266 -0.05050347 0.00025626
-0.06678896 -0.05493372 0.00006995
-0.06144695 -0.05212828 0.00052561
-0.06177256 -0.05545822 0.00052100
-0.05056237 -0.04963839 0.00023962
-0.06694334 -0.05158605 -0.00077426
-0.06502357 -0.05140094 -0.00021003
-0.04971165 -0.04915420 0.00009168
-0.06992411 -0.05497048 -0.00078467
-0.05470635 -0.04900119 0.00050407
-0.07167550 -0.05929622 0.00001701
-0.06643787 -0.05785847 0.00051744
-0.05540032 -0.04220745 0.00017046
-0.06168895 -0.04900322 -0.00034335
-0.05613282 -0.04159519 -0.00020361
-0.06163219 -0.05604635 0.00062614
-0.05793835 -0.04545030 0.00017245
-0.06754515 -0.06108346 0.00074159
-0.05542677 -0.05225864 0.00039753
-0.05189232 -0.04558801 0.00027794
-0.06238063 -0.05310130 0.00043472
-0.06454218 -0.04936822 -0.00059993
-0.06701304 -0.06180788 0.00091679
-0.06907726 -0.05475362 -0.00059100
-0.05489401 -0.04884987 0.00026488
-0.05551359 -0.05343264 0.00039173
-0.05179955 -0.05037310 0.00032730
-0.05738546 -0.04233934 -0.00029645
-0.05772502 -0.04761058 0.00033910
-0.05318478 -0.04767667 0.00046483
-0.06522873 -0.05783897 0.00062681
-0.06379019 -0.05301818 0.00023709
-0.06035929 -0.05296813 0.00037375
-0.06269576 -0.05550979 0.00062211
-0.06351800 -0.05214803 0.00023646
-0.06965407 -0.05800336 0.00011457
-0.05951071 -0.04804309 0.00004747
-0.07053981 -0.05799881 -0.00008541
-0.05090168 -0.04455273 0.00036921
-0.05761591 -0.05257370 0.00062614
-0.05530042 -0.04798918 0.00029027
-0.06131691 -0.05601863 0.00066313
-0.06502048 -0.04995147 -0.00059287
-0.06568214 -0.05603430 0.00028781
-0.07070466 -0.05570396 -0.00081677
-0.07102880 -0.05777946 -0.00042017
-0.05623002 -0.04628997 0.00023551
-0.06480316 -0.04950688 -0.00059862
-0.06057503 -0.04540750 -0.00050166
-0.05857457 -0.05512042 0.00054205
-0.05670445 -0.05402226 0.00055802
-0.05727523 -0.04697787 0.00045306
-0.06753874 -0.06166569 0.00082088
-0.05177267 -0.05050978 0.00027014
-0.06528764 -0.05247185 -0.00002005
-0.05985965 -0.05138804 0.00026857
-0.05494148 -0.05093450 0.00056260
-0.06323651 -0.05798680 0.00062390
-0.06420414 -0.05426204 0.00024674
-0.06152309 -0.05146668 0.00037191
-0.05554900 -0.04346722 0.00030703
-0.06886661 -0.05974629 0.00059951
-0.07087080 -0.06076811 0.00032235
-0.07039232 -0.05757461 -0.00027402
-0.05245051 -0.04460116 0.00060820
-0.06453055 -0.05633851 0.00056630
-0.04992812 -0.04488420 0.00049311
-0.05644811 -0.04190801 -0.00018093
-0.05851885 -0.05261440 0.00048845
-0.06867865 -0.05333069 -0.00075879
-0.05280450 -0.04701342 0.00049567
-0.06804403 -0.05265346 -0.00078834
-0.06896960 -0.06195046 0.00071412
-0.06450598 -0.05395412 0.00039727
-0.05517780 -0.04689982 0.00023207
-0.05963655 -0.05643135 0.00056977
-0.05812490 -0.04297960 -0.00029657
-0.06700099 -0.06035024 0.00075108
-0.06908901 -0.05960098 0.00052175
-0.06328033 -0.04986543 -0.00009878
-0.05632125 -0.05105315 0.00043016
-0.06256975 -0.05459745 0.00039078
-0.05501781 -0.04193771 0.00002085
-0.05829536 -0.05512910 0.00069924
-0.06416313 -0.04888454 -0.00062241
-0.05542809 -0.05262043 0.00051877
-0.05390352 -0.04086068 0.00027947
-0.06020604 -0.05461715 0.00051754
-0.06335699 -0.05878240 0.00078165
-0.06892312 -0.05419731 -0.00064959
-0.05268267 -0.05133363 0.00028500
-0.05667437 -0.04141534 -0.00010660
-0.05235262 -0.04797980 0.00039160
-0.06390824 -0.05914917 0.00074120
-0.05462417 -0.04385793 0.00030653
-0.05066784 -0.04604840 0.00022090
-0.06649128 -0.05459006 0.00000298
-0.07229122 -0.05699205 -0.00084917
-0.07130620 -0.05975481 0.00023921
-0.06382260 -0.05790069 0.00062347
-0.06049756 -0.05690933 0.00079303
-0.05871443 -0.04672761 0.00016402
-0.05633901 -0.04974382 0.00053981
-0.04972726 -0.04674001 0.00032656
-0.05435405 -0.04535021 0.00041450
-0.07177186 -0.05783193 -0.00042653
-0.05854943 -0.04872928 0.00018643
-0.06052652 -0.04965484 0.00004723
-0.05981805 -0.05143830 0.00042047
-0.07123260 -0.05626678 -0.00062920
-0.06609107 -0.05316026 -0.00013839
-0.05439998 -0.05184019 0.00047164
-0.06461741 -0.05876003 0.00075279
-0.06665598 -0.05990280 0.00081010
-0.05415701 -0.04408718 0.00047747
-0.05707338 -0.05426584 0.00053751
-0.05166407 -0.05067833 0.00028731
-0.07010761 -0.05610930 -0.00032500
-0.05791855 -0.04567054 -0.00004112
-0.05532553 -0.04527409 0.00041977
-0.06526841 -0.05395474 0.00022412
-0.06776201 -0.06090231 0.00076759
-0.05642550 -0.05245368 0.00052172
-0.05638509 -0.05130870 0.00047167
-0.06768603 -0.05892561 0.00040959
-0.07092642 -0.05624273 -0.00083782
-0.06477312 -0.05833995 0.00054309
-0.05532525 -0.04376140 0.00004065
-0.06282108 -0.04761826 -0.00057031
-0.05353411 -0.05192642 0.00033371
-0.06116442 -0.05497496 0.00061946
-0.06049983 -0.05373605 0.00052021
-0.06668955 -0.05946838 0.00079422
-0.06541301 -0.05489532 0.00027064
-0.05624406 -0.05400779 0.00054227
-0.05968525 -0.04808371 -0.00007120
-0.06502581 -0.06030245 0.00090118
-0.06302908 -0.05358258 0.00038943
-0.05998478 -0.04603386 -0.00029406
-0.06662663 -0.05986360 0.00059634
-0.05556465 -0.05322044 0.00052139
-0.06038688 -0.04839301 -0.00006306
-0.05968575 -0.04687907 -0.00010449
-0.05271849 -0.04785120 0.00054057
-0.05670659 -0.04592858 0.00012765
-0.05798919 -0.05130282 0.00042815
-0.05624534 -0.05209475 0.00049350
-0.06692540 -0.05279487 -0.00064403
-0.05112110 -0.04904674 0.00022087
-0.05177937 -0.04784577 0.00037400
-0.06680615 -0.05283667 -0.00048755
-0.05893773 -0.04628039 -0.00017558
-0.05924775 -0.05581821 0.00059875
-0.05398624 -0.04511326 0.00023379
-0.06890293 -0.06293578 0.00095510
-0.06257120 -0.05157692 0.00017488
-0.06308899 -0.04864638 -0.00052462
-0.05743118 -0.04329992 -0.00001956
-0.06844483 -0.06281002 0.00085165
-0.06469882 -0.05076621 -0.00049637
-0.05497312 -0.05315557 0.00053379
-0.06174832 -0.05775253 0.00073773
-0.05364220 -0.05215778 0.00041860
-0.06237676 -0.05421913 0.00045939
-0.06111856 -0.04767697 -0.00031155
-0.07246348 -0.05754175 -0.00074811
-0.05512198 -0.05320635 0.00040522
-0.06098041 -0.05599342 0.00063256
-0.05718856 -0.04554199 -0.00004889
-0.05154447 -0.04964177 0.00029031
-0.07134877 -0.06035617 0.00031743
-0.05950011 -0.04988675 0.00041847
-0.05006324 -0.04866789 0.00014401
-0.05831983 -0.04787746 0.00038633
-0.06366414 -0.05218375 0.00014755
-0.05527481 -0.05113865 0.00048564
-0.06111169 -0.05609767 0.00058705
-0.05153537 -0.04942993 0.00021609
-0.06713512 -0.05841405 0.00029528
-0.06573545 -0.05433900 -0.00000392
-0.04954275 -0.04560664 0.00022795
-0.04973270 -0.04863603 0.00016934
-0.05923028 -0.05025438 0.00032034
-0.06997604 -0.05614075 -0.00038546
-0.06728432 -0.05711145 0.00025600
-0.07035435 -0.05694657 -0.00032060
-0.06039818 -0.05702843 0.00065410
-0.05773026 -0.04615355 0.00012322
-0.05577150 -0.04931079 0.00047323
-0.06428264 -0.05084425 -0.00039733
-0.06527373 -0.06055665 0.00080269
-0.05231721 -0.05110894 0.00035816
-0.05692140 -0.04859791 0.00031375
-0.05581332 -0.04319349 0.00023683
-0.06393076 -0.05462332 0.00026723
-0.04862924 -0.04712528 0.00049558
-0.05346668 -0.04706093 -0.00014206
-0.05287923 -0.05007187 -0.00004770
-0.05077299 -0.05681544 0.00039712
-0.05920282 -0.06239510 0.00052227
-0.05855283 -0.05951468 0.00019968
-0.05323763 -0.05229878 0.00013893
-0.04739018 -0.05496564 0.00038107
-0.05418469 -0.05828798 0.00051583
-0.05494885 -0.06056492 0.00062534
-0.05079532 -0.04843994 0.00006557
-0.04591210 -0.04989535 0.00044185
-0.05270026 -0.05856118 0.00057461
-0.06175085 -0.06326924 0.00033534
-0.06089359 -0.06009343 0.00019119
-0.05072758 -0.04555211 0.00015023
-0.05364997 -0.04743801 -0.00027302
-0.05239622 -0.05007364 -0.00002767
-0.06054432 -0.06447169 0.00077795
-0.04882493 -0.05115480 0.00031741
-0.05527677 -0.04950047 -0.00029114
-0.04730572 -0.04984901 0.00049561
-0.05171532 -0.05931349 0.00054998
-0.05224764 -0.04576775 -0.00023072
-0.06138442 -0.06232160 0.00038832
-0.05917186 -0.05715102 -0.00018082
-0.05861194 -0.05622875 -0.00026312
-0.04863131 -0.05503946 0.00038113
-0.06359799 -0.06087896 -0.00046970
-0.04637704 -0.05456878 0.00023121
-0.05722503 -0.05201866 -0.00050384
-0.05217503 -0.05667086 0.00056753
-0.05115427 -0.04845169 0.00035740
-0.05592479 -0.05894172 0.00058459
-0.05879941 -0.06473335 0.00074605
-0.06382137 -0.06804777 0.00076518
-0.04968915 -0.05415524 0.00044917
-0.05362368 -0.05817715 0.00039007
-0.05768142 -0.05813219 0.00022517
-0.06652533 -0.06412356 -0.00044990
-0.06047036 -0.05554119 -0.00059079
-0.05167208 -0.04960179 0.00037310
-0.04924302 -0.05316766 0.00034742
-0.05534413 -0.05209853 0.00000568
-0.05050673 -0.05831081 0.00042681
-0.05013440 -0.04745533 0.00041039
-0.05302846 -0.04996993 0.00023056
-0.05231318 -0.05514047 0.00058141
-0.05051963 -0.05535286 0.00061317
-0.04580858 -0.05410831 0.00019671
-0.06021602 -0.06671161 0.00082811
-0.05840730 -0.06171741 0.00048714
-0.04969597 -0.05223289 0.00038332
-0.04962768 -0.05725119 0.00036376
-0.04892362 -0.05340554 0.00050535
-0.05330162 -0.05067099 0.00005477
-0.05017405 -0.05321289 0.00051487
-0.06463347 -0.06649905 0.00035774
-0.06160447 -0.06794226 0.00085815
-0.06183193 -0.06259148 0.00024053
-0.05583435 -0.05496813 0.00030081
-0.05781846 -0.05539240 -0.00023045
-0.06114278 -0.06609427 0.00072683
-0.05781409 -0.06167055 0.00063913
-0.05807594 -0.05422136 -0.00018219
-0.05239858 -0.05360603 0.00051606
-0.05653605 -0.06351909 0.00068267
-0.05203691 -0.05951380 0.00052121
-0.06064270 -0.06152040 0.00021633
-0.05847327 -0.05848333 0.00010968
-0.05956026 -0.05631181 -0.00019368
-0.06275061 -0.06343602 0.00007903
-0.05045173 -0.04834542 0.00021992
-0.05767129 -0.06058267 0.00053568
-0.06439374 -0.06362858 -0.00015673
-0.05350344 -0.05947731 0.00067335
-0.06226145 -0.05927528 -0.00030286
-0.05983384 -0.05519215 -0.00063067
-0.05725793 -0.05336123 -0.00037465
-0.06550334 -0.06171296 -0.00086031
-0.04864124 -0.05072207 0.00049017
-0.06133311 -0.06401105 0.00048226
-0.04700961 -0.05275169 0.00031633
-0.05762624 -0.05308481 -0.00020108
-0.05183471 -0.04524178 -0.00012244
-0.06115416 -0.05628018 -0.00072873
-0.05152738 -0.05575078 0.00031741
-0.05186466 -0.05636209 0.00055481
-0.05967629 -0.06621056 0.00084327
-0.06156358 -0.06177144 0.00009917
-0.05918719 -0.05966046 0.00024913
-0.05543142 -0.05179387 -0.00027754
-0.05369709 -0.05647668 0.00042775
-0.04833807 -0.04990619 0.00058477
-0.05207040 -0.05821280 0.00047883
-0.04603971 -0.04965727 0.00026474
-0.06387258 -0.06058261 -0.00056172
-0.06365339 -0.06315946 0.00003478
-0.06494379 -0.06542582 0.00000309
-0.05301158 -0.06038554 0.00058727
-0.06402275 -0.06513907 0.00036511
-0.05578292 -0.05766618 0.00029148
-0.04836324 -0.05628505 0.00036393
-0.04850641 -0.05591830 0.00040729
-0.05743259 -0.06121530 0.00051140
-0.06558740 -0.06301082 -0.00047203
-0.06315306 -0.06091069 -0.00041910
-0.05193862 -0.05552087 0.00044293
-0.06552369 -0.06315950 -0.00038326
-0.06643751 -0.06263961 -0.00084458
-0.06047267 -0.06054374 0.00021022
-0.06250639 -0.06043694 -0.00011593
-0.06543995 -0.06374051 -0.00041780
-0.06124368 -0.05639246 -0.00050968
-0.06249122 -0.06753181 0.00077442
-0.04543178 -0.05375628 0.00016893
-0.06495138 -0.06224860 -0.00045064
-0.04825216 -0.05617604 0.00038220
-0.04691972 -0.05430878 0.00022741
-0.05413305 -0.05397289 0.00039408
-0.05467104 -0.05671869 0.00054987
-0.05220354 -0.05448566 0.00059404
-0.06160656 -0.05736525 -0.00057717
-0.06243499 -0.06655551 0.00061429
-0.05587776 -0.05127617 -0.00041639
-0.05872833 -0.05728290 0.00024659
-0.05697984 -0.06061105 0.00055800
-0.04681693 -0.04958537 0.00037341
-0.06736185 -0.06376108 -0.00091694
-0.05159472 -0.05105913 0.00041001
-0.05790563 -0.05864742 0.00010766
-0.06244621 -0.06212520 0.00013592
-0.05975439 -0.06541324 0.00077604
-0.05046633 -0.05379080 0.00054568
-0.06013473 -0.06007787 0.00004167
-0.06028369 -0.05746439 -0.00028105
-0.04878876 -0.05277332 0.00039522
-0.05171087 -0.05169095 0.00020156
-0.06227644 -0.06068915 0.00004791
-0.04918393 -0.05063938 0.00052159
-0.04895198 -0.05580836 0.00043504
-0.05236335 -0.05990865 0.00058671
-0.05619191 -0.05181856 -0.00036415
-0.06295493 -0.06163651 -0.00007054
-0.06087609 -0.05600240 -0.00065648
-0.05081065 -0.05550757 0.00061107
-0.05788873 -0.05975520 0.00025821
-0.05389136 -0.05962100 0.00070048
-0.04844770 -0.05228863 0.00040109
-0.05966628 -0.06010205 0.00013956
-0.05654833 -0.05104830 -0.00040825
-0.05980468 -0.05654604 -0.00029712
-0.06401167 -0.06350031 -0.00014772
-0.05947435 -0.05624538 -0.00018422
-0.06228676 -0.05867816 -0.00053516
-0.04836376 -0.05184574 0.00031253
-0.05524140 -0.05990465 0.00066383
-0.06060997 -0.06063352 0.00018983
-0.05314419 -0.05353672 0.00040696
-0.05052945 -0.05443475 0.00057405
-0.06143220 -0.05790104 -0.00027184
-0.05770585 -0.05468741 -0.00002712
-0.05250417 -0.04615505 -0.00015806
-0.05239229 -0.04622487 -0.00014581
-0.05032678 -0.05809622 0.00048880
-0.06307278 -0.06587646 0.00046689
-0.05878504 -0.06325028 0.00068734
-0.06236629 -0.06091409 -0.00002469
-0.05392278 -0.05796856 0.00050013
-0.05659284 -0.05930644 0.00042225
-0.04929463 -0.05630923 0.00043916
-0.05070640 -0.04524336 -0.00000520
-0.04383488 -0.05102303 0.00009906
-0.05072714 -0.05842451 0.00047562
-0.05166031 -0.05090770 0.00018554
-0.06348273 -0.06555407 0.00058927
-0.06378605 -0.06511657 0.00041242
-0.05419219 -0.05958462 0.00052766
-0.04713318 -0.05275659 0.00033652
-0.06771100 -0.06404518 -0.00089852
-0.05248510 -0.05740505 0.00065737
-0.05511113 -0.06226643 0.00071430
-0.06488836 -0.06086420 -0.00083555
-0.04683114 -0.05243872 0.00041669
-0.06042190 -0.06682548 0.00080933
-0.05965079 -0.05980892 0.00013596
-0.06090818 -0.06111605 0.00012837
-0.05888145 -0.06064931 0.00041244
-0.06238431 -0.06860327 0.00091387
-0.04841049 -0.05358172 0.00045515
-0.05764596 -0.05217320 -0.00050577
-0.05053801 -0.04963653 0.00016345
-0.04534602 -0.05370295 0.00025106
-0.04693155 -0.05012685 0.00054362
-0.06017926 -0.05629635 -0.00032920
-0.05798206 -0.05268150 -0.00051108
-0.04865562 -0.05310493 0.00030262
-0.05122175 -0.05489773 0.00035810
-0.06490128 -0.06309440 -0.00048684
-0.05535284 -0.06166098 0.00064719
-0.05049193 -0.05012395 0.00026786
-0.05547292 -0.04953895 -0.00038010
-0.05239609 -0.05541783 0.00037258
-0.04632319 -0.05450211 0.00014124
-0.05557679 -0.05232384 -0.00018652
-0.04584827 -0.04916038 0.00047047
-0.04812317 -0.05462641 0.00033145
-0.06166143 -0.06521664 0.00060184
-0.05690105 -0.06316733 0.00077669
-0.05597224 -0.06025289 0.00067046
-0.05206100 -0.05597261 0.00045215
-0.04805793 -0.05330307 0.00038111
-0.06077026 -0.06571713 0.00070742
-0.06318732 -0.06233107 0.00008841
-0.04650948 -0.05325743 0.00029006
-0.06498877 -0.06605690 0.00033744
-0.05846129 -0.05312931 -0.00056436
-0.05339244 -0.05608468 0.00042603
-0.05467212 -0.05644628 0.00026903
-0.05357558 -0.05513859 0.00034529
-0.05896787 -0.05858854 0.00031161
-0.04946053 -0.05694144 0.00042265
-0.06078617 -0.05664817 -0.00053764
-0.05049557 -0.05015671 0.00019153
-0.05283715 -0.05605803 0.00055418
-0.04951833 -0.05430102 0.00044979
-0.05897213 -0.05456950 -0.00035770
-0.05653906 -0.06226189 0.00073799
-0.04835890 -0.05155008 0.00052470
-0.06222892 -0.06512948 0.00045973
-0.05881440 -0.05898701 0.00026332
-0.05430837 -0.06141975 0.00061900
-0.05813669 -0.06302986 0.00054104
-0.05396176 -0.06116278 0.00067195
-0.05553951 -0.05906032 0.00035126
-0.05496735 -0.06211555 0.00064099
-0.06319720 -0.06257773 0.00018028
-0.04466533 -0.05198379 0.00014357
-0.04748423 -0.05548179 0.00033502
-0.05220669 -0.04631586 0.00000783
-0.05761333 -0.05344063 -0.00022076
-0.05049490 -0.05715239 0.00051437
-0.04430885 -0.05283275 0.00007487
-0.04500903 -0.05108258 0.00035335
-0.06312111 -0.06500859 0.00048079
-0.05633232 -0.05953875 0.00043910
-0.05495311 -0.05573626 0.00047149
-0.05470185 -0.05413518 0.00040190
-0.05128194 -0.04723472 0.00024640
-0.05110994 -0.05763377 0.00047036
-0.04698769 -0.05016250 0.00050883
-0.05977904 -0.06176572 0.00038194
-0.04940803 -0.05722003 0.00038420
-0.06625379 -0.06541738 -0.00022715
-0.05156538 -0.04616155 0.00011289
-0.05047978 -0.04436955 0.00014428
-0.05796658 -0.06384610 0.00071692
-0.04895210 -0.05129132 0.00047070
-0.05011578 -0.05794361 0.00043148
-0.05236400 -0.04595041 -0.00001447
-0.05700814 -0.05922516 0.00056065
-0.05704173 -0.05150901 -0.00044986
-0.05414851 -0.05391508 0.00014802
-0.06254293 -0.06861617 0.00098441
-0.05798362 -0.05623267 -0.00013546
-0.05954709 -0.06288770 0.00042554
-0.05721892 -0.05824879 0.00045592
-0.05130608 -0.05857764 0.00048299
-0.04985812 -0.04877639 0.00039120
-0.05679985 -0.05224561 -0.00045752
-0.06219371 -0.06849409 0.00091189
-0.06368396 -0.06545594 0.00031894
-0.05097028 -0.04682238 -0.00005324
-0.05594693 -0.06116236 0.00053651
-0.06227207 -0.06849304 0.00089003
-0.06065246 -0.06570483 0.00074266
-0.05928008 -0.06404049 0.00072107
-0.05078129 -0.04740085 0.00016663
-0.06513548 -0.06113574 -0.00083245
-0.06656377 -0.06568906 -0.00002603
-0.05124713 -0.05886222 0.00053510
-0.06384499 -0.05994179 -0.00081070
-0.04944230 -0.04822806 0.00016919
-0.05476611 -0.05502802 0.00046160
-0.05796985 -0.06126793 0.00058144
-0.05373584 -0.05612100 0.00046373
-0.04446154 -0.05292142 0.00008115
-0.05828654 -0.05527928 -0.00005469
-0.05400434 -0.04952442 -0.00003769
-0.05261779 -0.05836773 0.00060435
-0.05331333 -0.05007073 -0.00008726
-0.04987206 -0.05416442 0.00039159
-0.05056058 -0.05740730 0.00046854
-0.05567806 -0.06026077 0.00075122
-0.05164431 -0.04553073 0.00007170
-0.05801821 -0.06484030 0.00075391
-0.05621033 -0.05670099 0.00039554
-0.05173897 -0.05385569 0.00029402
-0.04909053 -0.05133737 0.00055828
-0.04518827 -0.04957386 0.00020015
-0.05257132 -0.04863836 0.00014160
-0.04559038 -0.05143401 0.00043555
-0.05215344 -0.04567456 -0.00015667
-0.04993093 -0.04741742 0.00016312
-0.05283320 -0.04657607 -0.00009112
-0.05794844 -0.06481646 0.00073843
-0.06259273 -0.06449155 0.00032277
-0.05102805 -0.04583097 -0.00000885
-0.05819034 -0.06398029 0.00076309
-0.04840228 -0.05140812 0.00052118
-0.05674838 -0.05905868 0.00028398
-0.05306104 -0.05762611 0.00054050
-0.06498327 -0.06218293 -0.00065355
-0.06336834 -0.06446630 0.00023127
-0.06370247 -0.06014275 -0.00060527
-0.05521171 -0.05582686 0.00028160
-0.06464987 -0.06203058 -0.00032965
-0.06150297 -0.06788539 0.00085736
-0.06623251 -0.06529395 -0.00009824
-0.04740352 -0.05462777 0.00037128
-0.04966191 -0.05750809 0.00047710
-0.06214919 -0.06589575 0.00063580
-0.06066994 -0.06577961 0.00070349
-0.05572222 -0.06256733 0.00064580
-0.05112097 -0.05628337 0.00052090
-0.04920085 -0.05711148 0.00036474
-0.06302299 -0.06703564 0.00068704
-0.04398286 -0.05243024 0.00014648
-0.05964899 -0.06612559 0.00086044
-0.04810081 -0.05609786 0.00035292
-0.04682670 -0.05455679 0.00032970
-0.04823419 -0.04790256 0.00052467
-0.04924905 -0.05720085 0.00039749
-0.06328068 -0.06557858 0.00038687
-0.04580860 -0.05264829 0.00034829
-0.04509594 -0.04984790 0.00043726
-0.04733810 -0.05542374 0.00037494
-0.06669918 -0.06393723 -0.00067223
-0.06678345 -0.06332043 -0.00079894
-0.05665069 -0.05751565 0.00018437
-0.05732901 -0.06318685 0.00079697
-0.06269430 -0.06218863 -0.00005267
-0.05292067 -0.05197417 0.00039626
-0.06064190 -0.05581493 -0.00068767
-0.05200929 -0.05798452 0.00059999
-0.04397065 -0.05245051 0.00010903
-0.05520304 -0.05568378 0.00018359
-0.05439175 -0.06156915 0.00061434
-0.04926373 -0.04553269 0.00011898
-0.05540017 -0.05705710 0.00024345
-0.05839063 -0.06206837 0.00065381
-0.05478822 -0.04927295 -0.00025960
-0.05380672 -0.05956506 0.00068070
-0.05627907 -0.06247709 0.00075227
-0.04910792 -0.05512841 0.00048660
-0.06350467 -0.06265012 0.00005544
-0.04987384 -0.04867144 0.00016193
-0.05166619 -0.05854323 0.00059399
-0.04738948 -0.05526297 0.00033197
-0.05094589 -0.05726386 0.00051095
-0.05582565 -0.05398633 -0.00000918
-0.06178360 -0.05724577 -0.00061695
-0.05063498 -0.05581063 0.00057951
-0.05597885 -0.05017786 -0.00036106
-0.06069612 -0.05784247 -0.00016290
-0.06360062 -0.06403418 0.00029695
-0.05281334 -0.04845971 0.00009893
-0.05757712 -0.05900210 0.00043783
-0.05572630 -0.05718676 0.00048367
-0.05070333 -0.05440363 0.00039564
-0.05174850 -0.05880146 0.00056211
-0.06207395 -0.06057326 -0.00012332
-0.04723217 -0.05234274 0.00029627
-0.06110729 -0.06348533 0.00054697
-0.05657125 -0.05987293 0.00048656
-0.06334863 -0.06647644 0.00059403
-0.05996406 -0.06333257 0.00048251
-0.04605605 -0.05430685 0.00022950
-0.06500612 -0.06148075 -0.00079353
-0.05791945 -0.06407954 0.00068002
-0.06133912 -0.05749305 -0.00064426
-0.04471090 -0.04989480 0.00028782
-0.05620529 -0.05943561 0.00048886
-0.05734274 -0.05710733 0.00004250
-0.06029201 -0.06467208 0.00070986
-0.06743595 -0.06456031 -0.00068824
-0.06354608 -0.05912253 -0.00074063
-0.05808411 -0.05674401 0.00015858
-0.05517807 -0.05996295 0.00056752
-0.05930562 -0.05439316 -0.00055571
-0.06355866 -0.06857923 0.00081177
-0.05410310 -0.05338010 0.00021368
-0.05864492 -0.05783315 0.00029884
-0.05716689 -0.05287715 -0.00043665
-0.05884844 -0.06375848 0.00058083
-0.05190360 -0.04590725 -0.00013776
-0.04899189 -0.04577671 0.00019748
-0.05828965 -0.05626934 -0.00022950
-0.05671645 -0.05125067 -0.00039478
-0.06467561 -0.06537083 0.00006627
-0.05255871 -0.05552212 0.00047117
-0.05399946 -0.05754725 0.00063254
-0.05280391 -0.05790924 0.00041767
-0.05668582 -0.05406656 -0.00021707
-0.04893399 -0.05504087 0.00040597
-0.05136215 -0.04937592 0.00039924
-0.06018518 -0.06408762 0.00066230
-0.05415490 -0.05188434 -0.00004540
-0.05885513 -0.06046584 0.00040488
-0.06336943 -0.05897305 -0.00076313
-0.06259904 -0.06065450 -0.00008551
-0.05821597 -0.05298993 -0.00053950
-0.05386787 -0.05846769 0.00059683
-0.05520263 -0.05239747 -0.00011991
-0.04873549 -0.05671319 0.00035083
-0.05706661 -0.05531152 0.00015097
-0.06115126 -0.05979512 0.00002493
-0.05836275 -0.06305271 0.00042907
-0.05313069 -0.04675848 -0.00019621
-0.05721865 -0.06151788 0.00058625
-0.06134079 -0.06140066 -0.00002965
-0.06331010 -0.06408693 0.00029257
-0.06045377 -0.06694431 0.00083259
-0.05653733 -0.05922368 0.00042148
-0.05183978 -0.04897521 0.00020314
-0.06125068 -0.06435155 0.00059044
-0.05861753 -0.06376012 0.00081296
-0.06118340 -0.05627828 -0.00068482
-0.04864449 -0.05118004 0.00033823
-0.05785909 -0.05958824 0.00057039
-0.05363602 -0.04742629 -0.00020980
-0.06679083 -0.06440588 -0.00038261
-0.06087123 -0.06070431 0.00006109
-0.06432832 -0.06041300 -0.00088172
-0.06212043 -0.06126818 -0.00001643
-0.05478665 -0.05426758 0.00029091
-0.05954608 -0.05825042 0.00000611
-0.05496266 -0.05780877 0.00060791
-0.05693779 -0.05912273 0.00036585
-0.06478539 -0.06236065 -0.00044586
-0.05517752 -0.04983909 -0.00028891
-0.06442565 -0.06760478 0.00054888
-0.06638616 -0.06290284 -0.00086976
-0.04725212 -0.04710419 0.00043063
-0.05259213 -0.04779290 -0.00014395
-0.04768641 -0.05423882 0.00029192
-0.04899179 -0.05447334 0.00054800
-0.06521885 -0.06463688 -0.00010309
-0.06174724 -0.05988529 -0.00005154
-0.06208033 -0.06664431 0.00077318
-0.06179623 -0.06444297 0.00043855
-0.04970763 -0.05264082 0.00037227
-0.06166146 -0.05857401 -0.00026429
-0.05501819 -0.06132018 0.00062922
-0.05571763 -0.05493024 0.00009354
-0.05471075 -0.05864941 0.00046452
-0.05681799 -0.05659854 0.00025688
-0.05105121 -0.05025738 0.00018761
-0.06051672 -0.06557343 0.00074708
-0.06004740 -0.05519498 -0.00059114
-0.05843254 -0.05688383 0.00006678
-0.04818566 -0.05617824 0.00041314
-0.05905697 -0.06458749 0.00080036
-0.05978033 -0.05867299 -0.00000888
-0.05482475 -0.06131331 0.00066679
-0.06084627 -0.05939721 -0.00007569
-0.05995400 -0.06448204 0.00059813
-0.05581145 -0.06062156 0.00063044
-0.05877042 -0.05924531 0.00022266
-0.06168554 -0.05699774 -0.00065123
-0.05597466 -0.05869004 0.00057635
-0.06049093 -0.06571878 0.00068603
-0.05817624 -0.06421530 0.00074296
-0.05490482 -0.04900372 -0.00033746
-0.05252928 -0.05700517 0.00057849
-0.05238953 -0.05537259 0.00054590
-0.04396660 -0.05250048 0.00014934
-0.06051452 -0.06240489 0.00049794
-0.05031085 -0.05591691 0.00032673
-0.04869061 -0.05654590 0.00038483
-0.05474099 -0.05255589 0.00021981
-0.05083383 -0.05220715 0.00057483
-0.06294347 -0.06869294 0.00079599
-0.06321845 -0.06311874 0.00001372
-0.06032085 -0.05683887 -0.00046991
-0.05856122 -0.06272538 0.00053009
-0.05237230 -0.05716348 0.00055189
-0.05357265 -0.04910712 -0.00018491
-0.05626222 -0.06265097 0.00072560
-0.06504627 -0.06174773 -0.00073156
-0.05244875 -0.05441942 0.00023720
-0.04726967 -0.05547747 0.00030371
-0.06637550 -0.06257280 -0.00085880
-0.05549374 -0.05388478 0.00017512
-0.05292931 -0.05503994 0.00027104
-0.06063318 -0.05781195 -0.00014385
-0.05039408 -0.05051173 0.00026580
-0.06023549 -0.05854158 0.00004988
-0.04827869 -0.05529603 0.00031124
-0.04976466 -0.05204166 0.00034625
-0.05670616 -0.05181902 -0.00026389
-0.05653199 -0.06334047 0.00065073
-0.06376621 -0.06256970 -0.00018389
-0.04989196 -0.05698919 0.00045649
-0.05197822 -0.05655315 0.00048445
-0.04752510 -0.04904059 0.00050244
-0.05040218 -0.04613747 0.00026421
-0.05183655 -0.05337775 0.00043746
-0.05693347 -0.05633595 0.00012220
-0.05559198 -0.04977093 -0.00032358
-0.05648916 -0.05620007 0.00000224
-0.04322814 -0.05175924 -0.00000560
-0.06493944 -0.06618858 0.00035544
-0.06470281 -0.06273803 -0.00023949
-0.04907463 -0.05164733 0.00038420
-0.05654812 -0.05429980 0.00008630
-0.05676694 -0.06369619 0.00074720
-0.04833042 -0.05488683 0.00036310
-0.06440850 -0.06466911 0.00005349
-0.05147175 -0.04490998 -0.00007212
-0.06360943 -0.05918733 -0.00077142
-0.05607794 -0.05854089 0.00044550
-0.05338207 -0.05430127 0.00030675
-0.05746932 -0.06442697 0.00072402
-0.05003867 -0.05782295 0.00050111
-0.05835169 -0.05292426 -0.00055981
-0.05396996 -0.04810016 -0.00032966
-0.05278245 -0.05370253 0.00060688
-0.06326256 -0.06379362 0.00031409
-0.06190206 -0.06117731 -0.00008914
-0.05367112 -0.05624690 0.00057529
-0.05240893 -0.05521319 0.00039150
-0.05389388 -0.05570040 0.00030474
-0.06023287 -0.05988841 0.00014321
-0.05046231 -0.04729164 0.00031497
-0.05229962 -0.04928785 0.00024040
-0.05529643 -0.04929803 -0.00032144
-0.05920973 -0.05955760 0.00007358
-0.05644981 -0.05413358 0.00008515
-0.05926745 -0.06377100 0.00072510
-0.04798437 -0.05259246 0.00038889
-0.05565824 -0.05110142 -0.00028740
-0.04347930 -0.05198430 -0.00000217
-0.06280468 -0.06865430 0.00084073
-0.05535651 -0.04937192 -0.00039446
-0.05380864 -0.05436577 0.00045304
-0.04715680 -0.05164422 0.00048386
-0.05704775 -0.05680365 0.00026128
-0.05717403 -0.05410694 -0.00007519
-0.06067969 -0.06603557 0.00080121
-0.06271473 -0.06662871 0.00062321
-0.04837906 -0.05223844 0.00048499
-0.05412816 -0.06137671 0.00055943
-0.06394316 -0.06716114 0.00045233
-0.04560617 -0.05380780 0.00022631
-0.05579526 -0.05745830 0.00060443
-0.05257748 -0.05720138 0.00048165
-0.05477625 -0.05969043 0.00058815
-0.05923579 -0.06522891 0.00073307
-0.05056732 -0.05391694 0.00033649
-0.05348174 -0.04724669 -0.00028239
-0.06050056 -0.06619568 0.00073349
-0.05496004 -0.04953034 -0.00038468
-0.06521792 -0.06265910 -0.00042397
-0.06650092 -0.06266583 -0.00087760
-0.06465296 -0.06444571 -0.00010382
-0.05831884 -0.05940314 0.00044071
-0.05050171 -0.05271043 0.00050266
-0.05883294 -0.06266352 0.00070184
-0.05101302 -0.05769356 0.00052463
-0.05308461 -0.06039730 0.00059486
-0.05424178 -0.04919429 0.00000945
-0.06098570 -0.06269345 0.00045094
-0.06055458 -0.06594042 0.00065910
-0.06254705 -0.06256623 0.00024095
-0.05432876 -0.04827736 -0.00023136
-0.04772452 -0.05429845 0.00037532
-0.06144278 -0.06786185 0.00088949
-0.05668045 -0.06146254 0.00061604
-0.05051142 -0.04985213 0.00019270
-0.05607797 -0.06045143 0.00061466
-0.05318488 -0.05210275 0.00008692
-0.05362722 -0.05628974 0.00061111
-0.05166612 -0.04589906 0.00005531
-0.05625581 -0.05621776 0.00009521
-0.05521952 -0.05437061 0.00003797
-0.05792713 -0.05505872 -0.00025650
-0.06459957 -0.06663195 0.00038905
-0.05587728 -0.05000148 -0.00038021
-0.06206836 -0.06177839 0.00019627
-0.05532687 -0.05413455 0.00022189
-0.05085272 -0.05754143 0.00047245
-0.05224250 -0.05923114 0.00048006
-0.06451355 -0.06674405 0.00046569
-0.05349976 -0.06094661 0.00049365
-0.05340386 -0.05766441 0.00050220
-0.05949531 -0.06534447 0.00073634
-0.04965076 -0.05686355 0.00043014
-0.04968831 -0.05307203 0.00052961
-0.05496235 -0.05368269 0.00025557
-0.06427018 -0.06004666 -0.00082995
-0.06519073 -0.06121318 -0.00085675
-0.05730134 -0.05173951 -0.00052325
-0.05528474 -0.06251721 0.00065550
-0.05463821 -0.04865223 -0.00021711
-0.05890438 -0.05625740 -0.00037679
-0.06579266 -0.06192738 -0.00082701
-0.06054674 -0.05568411 -0.00071095
-0.05200091 -0.05949546 0.00060057
-0.06747997 -0.06387451 -0.00085286
-0.05774837 -0.06359946 0.00066590
-0.05262274 -0.05534031 0.00050418
-0.05969829 -0.05878821 0.00017127
-0.06126223 -0.06740099 0.00089356
-0.06553509 -0.06567248 0.00012506
-0.06625397 -0.06286864 -0.00076787
-0.04346740 -0.05197165 0.00017348
-0.05963426 -0.05459219 -0.00068567
-0.05129515 -0.04806649 0.00030959
-0.04775241 -0.05254096 0.00047678
-0.06142529 -0.05995840 -0.00022570
-0.04412438 -0.05255776 0.00003303
-0.04978311 -0.04727513 0.00021155
-0.06224533 -0.06333156 0.00038744
-0.06145784 -0.06456447 0.00056937
-0.05096151 -0.05178235 0.00025753
-0.06216236 -0.06681139 0.00065422
-0.06186072 -0.05728382 -0.00066538
-0.06092992 -0.06309034 0.00048727
-0.05011908 -0.05732554 0.00045274
-0.05383867 -0.05247246 0.00001381
-0.05431589 -0.06151905 0.00066245
-0.06307543 -0.05979883 -0.00049069
-0.06185748 -0.05839698 -0.00039098
-0.04900381 -0.04971550 0.00019332
-0.05288057 -0.05420655 0.00023888
-0.06158365 -0.06318341 0.00046913
-0.05537664 -0.05128992 0.00005674
-0.06716493 -0.06343848 -0.00087438
-0.06267760 -0.06543837 0.00047948
-0.06503252 -0.06396090 -0.00025583
-0.05212529 -0.05737537 0.00039656
-0.06179028 -0.06177176 0.00024888
-0.04637692 -0.05457918 0.00021702
-0.06362785 -0.06104379 -0.00028596
-0.05841612 -0.06329169 0.00060935
-0.05545354 -0.05854004 0.00044816
-0.04968267 -0.04676252 0.00016018
-0.05620267 -0.05644081 0.00043323
-0.06697068 -0.06419595 -0.00075342
-0.06122997 -0.06130722 0.00015705
-0.06109608 -0.06157156 0.00025147
-0.05234920 -0.04989305 0.00026081
-0.06238339 -0.06623422 0.00059841
-0.06394044 -0.06804615 0.00064164
-0.06450388 -0.06686369 0.00055686
-0.05432969 -0.05571108 0.00048839
-0.05039977 -0.05753615 0.00045151
-0.05846616 -0.05401525 -0.00032582
-0.05318193 -0.04781454 -0.00009587
-0.05329178 -0.04873659 0.00000207
-0.05019397 -0.04602842 0.00026390
-0.06177973 -0.06326734 0.00033724
-0.06215396 -0.06079675 -0.00001708
-0.05518528 -0.05588343 0.00022843
-0.04701492 -0.05294874 0.00035261
-0.06062692 -0.05638160 -0.00059888
-0.05217447 -0.04968757 0.00032414
-0.06157919 -0.05911231 -0.00048719
-0.05000926 -0.05645398 0.00042411
-0.04883817 -0.05213886 0.00035055
-0.05641988 -0.05983949 0.00063231
-0.05919463 -0.05587090 -0.00040591
-0.05955237 -0.06313572 0.00064200
-0.05056581 -0.05763214 0.00053850
-0.06247735 -0.05808304 -0.00072168
-0.06503437 -0.06139686 -0.00062171
-0.05304610 -0.05143389 -0.00003444
-0.05705017 -0.06353063 0.00073735
-0.05665410 -0.05687779 0.00040374
-0.05129785 -0.04567680 -0.00014342
-0.05717201 -0.05961473 0.00065126
-0.05202684 -0.05681691 0.00060993
-0.05936543 -0.05421350 -0.00058278
-0.05549389 -0.05938783 0.00042009
-0.05824031 -0.06331743 0.00054085
-0.05064073 -0.05012096 0.00022145
-0.05651085 -0.05940718 0.00060960
-0.06503031 -0.06184030 -0.00060590
-0.04795237 -0.05109978 0.00035247
-0.06335434 -0.06835613 0.00078651
-0.04567961 -0.05099986 0.00045810
-0.04723076 -0.05345088 0.00028313
-0.05904103 -0.05920409 0.00028143
-0.05596706 -0.05330369 -0.00010845
-0.06096587 -0.06526311 0.00058565
-0.05736400 -0.05812567 0.00019255
-0.05863069 -0.05483084 -0.00040103
-0.04826165 -0.05067403 0.00053402
-0.05180172 -0.05893377 0.00056732
-0.04958686 -0.04571425 0.00003658
-0.06350236 -0.06556255 0.00035368
-0.05092779 -0.04558098 0.00000103
-0.04751604 -0.04740371 0.00057376
-0.06107000 -0.06235708 0.00044563
-0.05459525 -0.04856754 -0.00030516
-0.05120834 -0.04978488 0.00044518
-0.06348324 -0.06757025 0.00062157
-0.05775362 -0.05548160 0.00002522
-0.06043660 -0.06084270 0.00017600
-0.06411147 -0.05984157 -0.00086316
-0.05933809 -0.06541922 0.00075472
-0.05392112 -0.06036851 0.00062832
-0.05335351 -0.05170417 -0.00000714
-0.04614601 -0.05380235 0.00026032
-0.04955831 -0.04634911 0.00016653
-0.05672607 -0.05972962 0.00041614
-0.05724068 -0.05443043 -0.00028558
-0.06634624 -0.06427888 -0.00053544
-0.06221505 -0.06839754 0.00087299
-0.05343011 -0.06074814 0.00056618
-0.04533805 -0.05141945 0.00023662
-0.06280153 -0.06769451 0.00073065
-0.05277886 -0.04640318 -0.00023654
-0.05182100 -0.05676847 0.00055882
-0.06058926 -0.05565842 -0.00059090
-0.06457339 -0.06049719 -0.00075283
-0.05826218 -0.06506113 0.00075986
-0.05394001 -0.05759448 0.00046590
-0.05203945 -0.05752510 0.00059693
-0.05311059 -0.06052539 0.00056631
-0.05317446 -0.04909305 -0.00018710
-0.04982168 -0.04668321 0.00006407
-0.04737926 -0.05536264 0.00026573
-0.05154157 -0.04903783 0.00017088
-0.05605583 -0.05312005 -0.00013505
-0.05984083 -0.06100662 0.00021439
-0.04976841 -0.05644867 0.00048910
-0.04689082 -0.04946311 0.00044350
-0.05998816 -0.05526957 -0.00062191
-0.06659671 -0.06466985 -0.00030519
-0.05188051 -0.04882366 0.00028890
-0.06729343 -0.06500440 -0.00046084
-0.05727842 -0.05744576 0.00044039
-0.06306758 -0.06399388 0.00007414
-0.06697655 -0.06317550 -0.00093546
-0.04326026 -0.05114921 0.00013008
-0.06067922 -0.06591257 0.00067440
-0.06171519 -0.06122590 0.00012685
-0.04835758 -0.05529522 0.00035866
-0.05390769 -0.06121286 0.00063938
-0.06514947 -0.06389197 -0.00034460
-0.06591070 -0.06203747 -0.00081821
-0.05402624 -0.05466612 0.00036408
-0.05344565 -0.05266095 0.00013996
-0.06354447 -0.06346003 0.00007293
-0.05812505 -0.06303769 0.00057775
-0.04454158 -0.05146568 0.00014686
-0.05357981 -0.05026951 0.00008613
-0.05566293 -0.05629018 0.00016617
-0.05554280 -0.06147893 0.00068056
-0.06161291 -0.06796786 0.00083177
-0.05488245 -0.06163741 0.00063253
-0.04527866 -0.05361521 0.00019991
-0.06507271 -0.06479000 0.00013536
-0.05897314 -0.06552947 0.00083059
-0.05129857 -0.05468735 0.00055974
-0.06014264 -0.06011114 0.00008581
-0.04683678 -0.04904519 0.00054498
-0.05573917 -0.06200228 0.00060592
-0.06439417 -0.06026941 -0.00080304
-0.05523918 -0.05976684 0.00055976
-0.05327300 -0.04757143 -0.00025546
-0.05572719 -0.05743127 0.00048746
-0.04953783 -0.05569198 0.00043130
-0.04373548 -0.05081741 0.00021528
-0.05936072 -0.05998712 0.00012468
-0.04811497 -0.04744928 0.00062440
-0.06110943 -0.06757478 0.00085181
-0.05678777 -0.05346639 -0.00027659
-0.05301387 -0.06050761 0.00056344
-0.05814787 -0.05596679 -0.00027426
-0.06325383 -0.06422445 0.00018819
-0.06407840 -0.06423869 -0.00010835
-0.05831425 -0.05782086 0.00032008
-0.06573345 -0.06173403 -0.00085191
-0.06394452 -0.06371775 0.00016880
-0.05993147 -0.06163135 0.00046077
-0.06126602 -0.05822913 -0.00050603
-0.06210584 -0.05757027 -0.00070994
-0.05695084 -0.05543785 0.00013185
-0.04348976 -0.05194868 0.00005752
-0.05197094 -0.04929689 -0.00004563
-0.05639693 -0.05620191 0.00023983
-0.05540580 -0.06264414 0.00069882
-0.05078138 -0.04908091 0.00009325
-0.06635722 -0.06244272 -0.00091475
-0.05054133 -0.05730729 0.00050274
-0.05745080 -0.05934034 0.00050903
-0.05449670 -0.05505453 0.00036436
-0.05861155 -0.05692498 0.00008498
-0.04619881 -0.04897907 0.00028433
-0.06094195 -0.05624064 -0.00061893
-0.05742846 -0.05263357 -0.00050356
-0.04883097 -0.05268544 0.00051572
-0.04376743 -0.05220789 0.00002951
-0.04945572 -0.05164429 0.00040002
-0.05899479 -0.05683319 -0.00025145
-0.06055737 -0.06616650 0.00081505
-0.06410650 -0.06406979 0.00023220
-0.06020250 -0.05932719 0.00013136
-0.04748673 -0.05129379 0.00051905
-0.05579994 -0.05456528 -0.00003372
-0.06617925 -0.06451613 -0.00048656
-0.06039757 -0.06691344 0.00092216
-0.06289138 -0.06805882 0.00083655
-0.06157108 -0.05735126 -0.00068966
-0.04721923 -0.05049915 0.00053897
-0.05224018 -0.05976488 0.00060172
-0.05155329 -0.05076160 0.00017660
-0.06016010 -0.06101551 0.00026157
-0.06308911 -0.06236043 -0.00012259
-0.05209525 -0.05958803 0.00052052
-0.04881272 -0.04806419 0.00030965
-0.06236600 -0.05917757 -0.00034684
-0.05628211 -0.05661204 0.00041018
-0.05162855 -0.05133904 0.00017984
-0.06306723 -0.06827472 0.00080966
-0.06387451 -0.06273933 -0.00012379
-0.05978959 -0.06513056 0.00068067
-0.05041448 -0.05337743 0.00034809
-0.05705087 -0.05916833 0.00052928
-0.06331020 -0.05923144 -0.00084259
-0.05187459 -0.05024186 0.00032896
-0.05398956 -0.05994922 0.00049289
-0.05523121 -0.05238288 0.00007762
-0.04761410 -0.04932797 0.00030404
-0.06332914 -0.06453810 0.00012304
-0.04861739 -0.04678487 0.00024045
-0.05712037 -0.05456063 0.00000383
-0.05873967 -0.06505433 0.00074984
-0.04972698 -0.04547613 0.00025257
-0.06428170 -0.06616966 0.00049740
-0.05312080 -0.06051785 0.00063069
-0.05857999 -0.05892501 0.00012868
-0.04680386 -0.05467946 0.00028803
-0.05640872 -0.05770627 0.00023075
-0.05370444 -0.05335928 0.00041786
-0.05686748 -0.05821608 0.00029604
-0.04853350 -0.05660485 0.00032802
-0.05003188 -0.05781481 0.00051755
-0.05100714 -0.05491264 0.00055440
-0.05023763 -0.04750754 0.00032199
-0.06208911 -0.06848649 0.00093068
-0.05158799 -0.05623354 0.00058767
-0.05872744 -0.06543149 0.00079710
-0.05603135 -0.05939380 0.00044990
-0.04770877 -0.05364191 0.00031814
-0.04828004 -0.04757797 0.00058354
-0.05038925 -0.05354362 0.00044052
-0.05204180 -0.04549021 -0.00004598
-0.06303267 -0.06541030 0.00037583
-0.04772153 -0.05581324 0.00037933
-0.05393301 -0.05915380 0.00055658
-0.06117452 -0.06499718 0.00066770
-0.05864552 -0.06037325 0.00048986
-0.05546935 -0.05381429 0.00018593
-0.05587760 -0.06289597 0.00075945
-0.05151079 -0.04950832 0.00011605
-0.05266609 -0.05540673 0.00043326
-0.05745765 -0.05915019 0.00048508
-0.05143703 -0.05419020 0.00029212
-0.05767349 -0.06189261 0.00056089
-0.06594403 -0.06292328 -0.00070457
-0.06397736 -0.06388711 0.00006788
-0.04827912 -0.05627544 0.00033259
-0.06133721 -0.05924590 -0.00016277
-0.06013554 -0.06669978 0.00086886
-0.05468906 -0.05338855 0.00000755
-0.04824740 -0.05623291 0.00028013
-0.05429247 -0.05009451 -0.00026193
-0.05818854 -0.05671712 -0.00009244
-0.05635568 -0.06104309 0.00061155
-0.05753617 -0.06221648 0.00056452
-0.04892158 -0.05612245 0.00042254
-0.06533817 -0.06527840 0.00011455
-0.05563941 -0.06030549 0.00054050
-0.05663570 -0.05594769 -0.00003713
-0.05719591 -0.05429774 -0.00027304
-0.05781566 -0.05929263 0.00034692
-0.05019178 -0.04999118 0.00044210
-0.06194808 -0.05849299 -0.00041045
-0.06407930 -0.06579449 0.00032006
-0.05091872 -0.04764639 0.00027300
-0.05100441 -0.04435536 -0.00005517
-0.05284197 -0.05706007 0.00059614
-0.06238779 -0.06837831 0.00087104
-0.04529654 -0.05361353 0.00021759
-0.06420036 -0.06161521 -0.00046969
-0.06320978 -0.06852268 0.00077423
-0.06271889 -0.06765361 0.00074964
-0.04662034 -0.04790460 0.00058098
-0.05334297 -0.05162768 0.00007237
-0.04715632 -0.04957294 0.00048255
-0.05321338 -0.06024785 0.00070667
-0.06582783 -0.06537146 -0.00005092
-0.06159194 -0.06013420 -0.00020458
-0.05268715 -0.05404719 0.00029465
-0.04468194 -0.05142433 0.00028773
-0.05971988 -0.06160912 0.00026076
-0.05437336 -0.05567475 0.00029444
-0.06370333 -0.05972852 -0.00083302
-0.04726663 -0.05067578 0.00046733
-0.05188567 -0.05954607 0.00046047
-0.05499728 -0.05872491 0.00041129
-0.05848329 -0.06199057 0.00053500
-0.05097904 -0.05338396 0.00052602
-0.06414488 -0.05982270 -0.00075252
-0.04448691 -0.05296299 0.00009288
-0.05215319 -0.05724585 0.00045568
-0.04970957 -0.05544600 0.00044531
-0.05057050 -0.04872148 0.00045166
-0.05909677 -0.06313066 0.00060159
-0.06348242 -0.06749731 0.00080907
-0.04955310 -0.05740717 0.00042518
-0.04784281 -0.05216033 0.00045220
-0.06529009 -0.06158912 -0.00080843
-0.06182566 -0.06602346 0.00064834
-0.06215045 -0.06360905 0.00025893
-0.06301214 -0.06556577 0.00046729
-0.05978434 -0.05708360 -0.00021486
-0.05995520 -0.05769305 -0.00036919
-0.05818195 -0.06464622 0.00080742
-0.05671950 -0.05764323 0.00042893
-0.06321354 -0.06699459 0.00080948
-0.05814699 -0.06339963 0.00069236
-0.05273016 -0.04638361 -0.00011068
-0.05244138 -0.05063807 0.00012387
-0.04634701 -0.05051983 0.00027162
-0.06325721 -0.06722558 0.00064479
-0.05624706 -0.06322852 0.00076966
-0.06188657 -0.05837250 -0.00052010
-0.06311878 -0.06558081 0.00044004
-0.05361856 -0.04739353 -0.00027386
-0.05996868 -0.05885779 0.00009571
-0.06609566 -0.06532968 -0.00020088
-0.05124705 -0.05025131 0.00034080
-0.06210619 -0.06829021 0.00096125
-0.05700863 -0.06142147 0.00065844
-0.04951380 -0.05297131 0.00031498
-0.04296345 -0.05165743 0.00007163
-0.06021837 -0.06674721 0.00075413
-0.06688990 -0.06504140 -0.00039404
-0.04767652 -0.05573640 0.00032940
-0.06584003 -0.06248149 -0.00070319
-0.06744154 -0.06471176 -0.00076242
-0.05248832 -0.04686648 -0.00019344
-0.04931514 -0.05160555 0.00049968
-0.05249361 -0.04599828 -0.00020339
-0.05451023 -0.05178516 0.00013450
-0.04576354 -0.05062512 0.00030571
-0.05951026 -0.06288745 0.00049971
-0.05672893 -0.06365312 0.00072694
-0.04697263 -0.05251017 0.00039059
-0.06193253 -0.06833265 0.00096274
-0.06137717 -0.06178848 0.00029739
-0.04691818 -0.04874610 0.00053757
-0.05252763 -0.05184533 0.00041930
-0.04585416 -0.05101631 0.00025418
-0.04589028 -0.05418288 0.00022788
-0.05956605 -0.06214138 0.00046466
-0.06777651 -0.06412281 -0.00095285
-0.05180491 -0.05671550 0.00056679
-0.05552116 -0.05135689 -0.00000143
-0.06005794 -0.06575673 0.00076716
-0.05122938 -0.05889265 0.00051736
-0.05808176 -0.05757768 0.00006289
-0.05839698 -0.05951863 0.00024934
-0.06230443 -0.06466018 0.00049774
-0.05117882 -0.05169857 0.00043670
-0.05474549 -0.05989231 0.00062009
-0.05968868 -0.05472852 -0.00067764
-0.06020018 -0.06179764 0.00045850
-0.04514546 -0.05349073 0.00023048
-0.05281771 -0.04747005 -0.00008143
-0.06202752 -0.06638931 0.00057756
-0.06224064 -0.06749018 0.00082378
-0.05400525 -0.05738632 0.00052061
-0.05496925 -0.06186425 0.00058741
-0.05358520 -0.05643984 0.00056001
-0.04710583 -0.04852248 0.00046851
-0.06375882 -0.06371427 -0.00005303
-0.05489200 -0.05064119 -0.00028315
-0.06352526 -0.05933934 -0.00081037
-0.05703472 -0.05801345 0.00026368
-0.06306568 -0.05864639 -0.00074888
-0.05318233 -0.05737285 0.00063998
-0.06736174 -0.06432222 -0.00073312
-0.06244861 -0.06868415 0.00089074
-0.06153533 -0.06511598 0.00059817
-0.06590115 -0.06503915 -0.00008911
-0.05234209 -0.04586962 -0.00022056
-0.04775218 -0.04988365 0.00060948
-0.05537935 -0.04939855 -0.00041489
-0.05443042 -0.05898693 0.00052549
-0.05703939 -0.05169721 -0.00039425
-0.06378468 -0.06300645 -0.00011712
-0.06266005 -0.06187552 -0.00000039
-0.05084635 -0.05792898 0.00047529
-0.05190133 -0.05319142 0.00033593
-0.05429208 -0.05773996 0.00054763
-0.06693656 -0.06458908 -0.00052053
-0.04649135 -0.05475889 0.00022934
-0.06323804 -0.05877716 -0.00081890
-0.06192993 -0.06177665 -0.00002971
-0.04583064 -0.05273283 0.00030736
-0.05325351 -0.06073671 0.00067954
-0.05802721 -0.05271889 -0.00050626
-0.05987456 -0.05912028 0.00014879
-0.05801564 -0.05977438 0.00033713
-0.06474426 -0.06087787 -0.00077511
-0.05004910 -0.05280547 0.00055882
-0.05761009 -0.05807229 0.00020524
-0.06488932 -0.06296522 -0.00049218
-0.06219002 -0.06029793 -0.00026062
-0.06605436 -0.06272123 -0.00074823
-0.05772894 -0.06440403 0.00075103
-0.05730132 -0.05838397 0.00034900
-0.05858601 -0.05567549 -0.00028046
-0.04547645 -0.04955235 0.00030024
-0.04877752 -0.05658269 0.00034681
-0.06089972 -0.06557844 0.00072897
-0.06249192 -0.05786180 -0.00070681
-0.05842117 -0.06507108 0.00073621
-0.06698781 -0.06433582 -0.00073531
-0.05638318 -0.05244618 -0.00012400
-0.05173663 -0.05280023 0.00042361
-0.05300348 -0.05031601 0.00021661
-0.05502726 -0.06180909 0.00066037
-0.05912120 -0.05847219 0.00016268
-0.05786156 -0.05912968 0.00036588
-0.05545895 -0.06033405 0.00062398
-0.05878703 -0.06450248 0.00066330
-0.06266482 -0.05805940 -0.00062943
-0.05058641 -0.05145009 0.00032213
-0.05468524 -0.05580295 0.00016816
-0.04498680 -0.05298068 0.00016898
-0.05485902 -0.05605158 0.00028267
-0.05506620 -0.04913702 -0.00036180
-0.06192033 -0.06818536 0.00093236
-0.06016733 -0.05691300 -0.00042508
-0.04892150 -0.05560818 0.00048768
-0.06173829 -0.05706467 -0.00069939
-0.05126457 -0.05732115 0.00048515
-0.05327594 -0.05345682 0.00037840
-0.06032317 -0.06277297 0.00058470
-0.05084107 -0.04472514 -0.00010513
-0.05998134 -0.06186219 0.00053197
-0.06380721 -0.05993231 -0.00059029
-0.04940805 -0.05265763 0.00057490
-0.05674125 -0.06155632 0.00063297
-0.05461003 -0.05404724 0.00015274
-0.04646998 -0.05391946 0.00023031
-0.05701754 -0.05213180 -0.00038939
-0.06541671 -0.06333387 -0.00043825
-0.05566188 -0.06270581 0.00065574
-0.05736442 -0.05238921 -0.00044098
-0.04506964 -0.04957842 0.00013917
-0.05644822 -0.06323195 0.00073567
-0.06436127 -0.06713515 0.00048687
-0.06304517 -0.06908021 0.00091742
-0.06091833 -0.05717775 -0.00039018
-0.05700893 -0.06391131 0.00062282
-0.05911816 -0.06423811 0.00072547
